NCOLS 201
NROWS 72
XLLCORNER 13.95
YLLCORNER -35.35
CELLSIZE 0.0999999999999943 
NODATA_value -9999 
-1370 -1051 -916.5 -669 -521 -174.5 -114 -184.5 -192.5 -186.5 -168.5 -165 -154 -129 -124.5 -120 -114 -92.5 -86 -86 -35 -35 -9999 -9999 -9999 -9999 -9999 -9999 -9999 -9999 -9999 -9999 -9999 -9999 -9999 -9999 -9999 -9999 -9999 -9999 -9999 -9999 -9999 -9999 -9999 -9999 -9999 -9999 -9999 -9999 -9999 -9999 -9999 -9999 -9999 -9999 -9999 -9999 -9999 -9999 -9999 -9999 -9999 -9999 -9999 -9999 -9999 -9999 -9999 -9999 -9999 -9999 -9999 -9999 -9999 -9999 -9999 -9999 -9999 -9999 -9999 -9999 -9999 -9999 -9999 -9999 -9999 -9999 -9999 -9999 -9999 -9999 -9999 -9999 -9999 -9999 -9999 -9999 -9999 -9999 -9999 -9999 -9999 -9999 -9999 -9999 -9999 -9999 -9999 -9999 -9999 -9999 -9999 -9999 -9999 -9999 -9999 -9999 -9999 -9999 -9999 -9999 -9999 -9999 -9999 -9999 -9999 -9999 -9999 -9999 -9999 -9999 -9999 -9999 -9999 -9999 -9999 -9999 -9999 -9999 -9999 -9999 -9999 -9999 -9999 -9999 -9999 -9999 -9999 -9999 -9999 -9999 -9999 -9999 -9999 -9999 -9999 -9999 -9999 -9999 -9999 -9999 -9999 -9999 -9999 -9999 -9999 -9999 -9999 -9999 -9999 -9999 -9999 -9999 -9999 -9999 -9999 -9999 -9999 -9999 -9999 -9999 -9999 -9999 -9999 -217 -461.5 -971.5 -1156.5 -1606 -1664 -1688 -1715 -1801.5 -1719 -1673.5 -1694.5 -1615 -1628.5 -1677 -1677
-1321.5 -1065.25 -953.25 -635.25 -437.25 -155.25 -113.75 -154.25 -184.25 -181 -179.75 -170 -162.25 -150.5 -142.75 -125.25 -123.5 -111 -101 -47 -35 -35 -9999 -9999 -9999 -9999 -9999 -9999 -9999 -9999 -9999 -9999 -9999 -9999 -9999 -9999 -9999 -9999 -9999 -9999 -9999 -9999 -9999 -9999 -9999 -9999 -9999 -9999 -9999 -9999 -9999 -9999 -9999 -9999 -9999 -9999 -9999 -9999 -9999 -9999 -9999 -9999 -9999 -9999 -9999 -9999 -9999 -9999 -9999 -9999 -9999 -9999 -9999 -9999 -9999 -9999 -9999 -9999 -9999 -9999 -9999 -9999 -9999 -9999 -9999 -9999 -9999 -9999 -9999 -9999 -9999 -9999 -9999 -9999 -9999 -9999 -9999 -9999 -9999 -9999 -9999 -9999 -9999 -9999 -9999 -9999 -9999 -9999 -9999 -9999 -9999 -9999 -9999 -9999 -9999 -9999 -9999 -9999 -9999 -9999 -9999 -9999 -9999 -9999 -9999 -9999 -9999 -9999 -9999 -9999 -9999 -9999 -9999 -9999 -9999 -9999 -9999 -9999 -9999 -9999 -9999 -9999 -9999 -9999 -9999 -9999 -9999 -9999 -9999 -9999 -9999 -9999 -9999 -9999 -9999 -9999 -9999 -9999 -9999 -9999 -9999 -9999 -9999 -9999 -9999 -9999 -9999 -9999 -9999 -9999 -9999 -9999 -9999 -9999 -9999 -9999 -9999 -9999 -9999 -9999 -9999 -9999 -9999 -9999 -34 -327.25 -682.5 -1067 -1314.5 -1704 -1701.5 -1739.75 -1731.75 -1717 -1669.5 -1688.75 -1669.5 -1637.25 -1655 -1701.75 -1701.75
-1267 -932.5 -798.5 -571.5 -455.5 -185 -137.5 -195 -205.5 -174.5 -171 -172 -160.5 -154.5 -156 -133.5 -136.5 -120.5 -113 -91 -53.5 -53.5 -18 -18 -9999 -9999 -9999 -9999 -9999 -9999 -9999 -9999 -9999 -9999 -9999 -9999 -9999 -9999 -9999 -9999 -9999 -9999 -9999 -9999 -9999 -9999 -9999 -9999 -9999 -9999 -9999 -9999 -9999 -9999 -9999 -9999 -9999 -9999 -9999 -9999 -9999 -9999 -9999 -9999 -9999 -9999 -9999 -9999 -9999 -9999 -9999 -9999 -9999 -9999 -9999 -9999 -9999 -9999 -9999 -9999 -9999 -9999 -9999 -9999 -9999 -9999 -9999 -9999 -9999 -9999 -9999 -9999 -9999 -9999 -9999 -9999 -9999 -9999 -9999 -9999 -9999 -9999 -9999 -9999 -9999 -9999 -9999 -9999 -9999 -9999 -9999 -9999 -9999 -9999 -9999 -9999 -9999 -9999 -9999 -9999 -9999 -9999 -9999 -9999 -9999 -9999 -9999 -9999 -9999 -9999 -9999 -9999 -9999 -9999 -9999 -9999 -9999 -9999 -9999 -9999 -9999 -9999 -9999 -9999 -9999 -9999 -9999 -9999 -9999 -9999 -9999 -9999 -9999 -9999 -9999 -9999 -9999 -9999 -9999 -9999 -9999 -9999 -9999 -9999 -9999 -9999 -9999 -9999 -9999 -9999 -9999 -9999 -9999 -9999 -9999 -9999 -9999 -9999 -9999 -9999 -9999 -9999 -9999 -1 -34 -535.5 -815 -1217.5 -1397.5 -1627.5 -1694.5 -1822.5 -1805.5 -1761 -1745.5 -1724 -1712 -1663 -1669.5 -1759.5 -1759.5
-1253.5 -886.5 -740.75 -494 -414 -202.75 -168.25 -235.5 -232.5 -172.5 -169.25 -174.25 -159.5 -173 -177.75 -144.25 -142.25 -134.25 -133 -103.5 -76.25 -21.6666666666667 -18 -18 -9999 -9999 -9999 -9999 -9999 -9999 -9999 -9999 -9999 -9999 -9999 -9999 -9999 -9999 -9999 -9999 -9999 -9999 -9999 -9999 -9999 -9999 -9999 -9999 -9999 -9999 -9999 -9999 -9999 -9999 -9999 -9999 -9999 -9999 -9999 -9999 -9999 -9999 -9999 -9999 -9999 -9999 -9999 -9999 -9999 -9999 -9999 -9999 -9999 -9999 -9999 -9999 -9999 -9999 -9999 -9999 -9999 -9999 -9999 -9999 -9999 -9999 -9999 -9999 -9999 -9999 -9999 -9999 -9999 -9999 -9999 -9999 -9999 -9999 -9999 -9999 -9999 -9999 -9999 -9999 -9999 -9999 -9999 -9999 -9999 -9999 -9999 -9999 -9999 -9999 -9999 -9999 -9999 -9999 -9999 -9999 -9999 -9999 -9999 -9999 -9999 -9999 -9999 -9999 -9999 -9999 -9999 -9999 -9999 -9999 -9999 -9999 -9999 -9999 -9999 -9999 -9999 -9999 -9999 -9999 -9999 -9999 -9999 -9999 -9999 -9999 -9999 -9999 -9999 -9999 -9999 -9999 -9999 -9999 -9999 -9999 -9999 -9999 -9999 -9999 -9999 -9999 -9999 -9999 -9999 -9999 -9999 -9999 -9999 -9999 -9999 -9999 -9999 -9999 -9999 -9999 -9999 -9999 -9999 -1 -85 -679 -902.5 -1320.75 -1491.75 -1674 -1765.25 -1910 -1918.75 -1844.5 -1827.75 -1843 -1819.5 -1683.25 -1662.25 -1713.5 -1713.5
-1272.5 -872.5 -691 -431.5 -362.5 -159 -149 -202 -189.5 -179.5 -166.5 -174 -179 -182.5 -182 -176.5 -172 -140 -134.5 -112 -105 -53.5 -18 -18 -11.6666666666667 -11.6666666666667 -9999 -9999 -9999 -9999 -9999 -9999 -9999 -9999 -9999 -9999 -9999 -9999 -9999 -9999 -9999 -9999 -9999 -9999 -9999 -9999 -9999 -9999 -9999 -9999 -9999 -9999 -9999 -9999 -9999 -9999 -9999 -9999 -9999 -9999 -9999 -9999 -9999 -9999 -9999 -9999 -9999 -9999 -9999 -9999 -9999 -9999 -9999 -9999 -9999 -9999 -9999 -9999 -9999 -9999 -9999 -9999 -9999 -9999 -9999 -9999 -9999 -9999 -9999 -9999 -9999 -9999 -9999 -9999 -9999 -9999 -9999 -9999 -9999 -9999 -9999 -9999 -9999 -9999 -9999 -9999 -9999 -9999 -9999 -9999 -9999 -9999 -9999 -9999 -9999 -9999 -9999 -9999 -9999 -9999 -9999 -9999 -9999 -9999 -9999 -9999 -9999 -9999 -9999 -9999 -9999 -9999 -9999 -9999 -9999 -9999 -9999 -9999 -9999 -9999 -9999 -9999 -9999 -9999 -9999 -9999 -9999 -9999 -9999 -9999 -9999 -9999 -9999 -9999 -9999 -9999 -9999 -9999 -9999 -9999 -9999 -9999 -9999 -9999 -9999 -9999 -9999 -9999 -9999 -9999 -9999 -9999 -9999 -9999 -9999 -9999 -9999 -9999 -9999 -9999 -9999 -9999 -25 -63 -209.5 -796.5 -1040.5 -1471 -1573 -1749 -1812 -1920.5 -1943.5 -1992.5 -1973.5 -1918.5 -1892.5 -1745.5 -1710.5 -1770.5 -1770.5
-1373.75 -953 -766.75 -422.75 -311.75 -174.75 -166.25 -195.25 -189.75 -174.75 -164.5 -169.25 -176.75 -182.25 -179 -171 -163.25 -157.25 -139.5 -119.25 -114.25 -105.5 -73.5 -16 -11.6666666666667 -11.6666666666667 -15 -9999 -9999 -9999 -9999 -9999 -9999 -9999 -9999 -9999 -9999 -9999 -9999 -9999 -9999 -9999 -9999 -9999 -9999 -9999 -9999 -9999 -9999 -9999 -9999 -9999 -9999 -9999 -9999 -9999 -9999 -9999 -9999 -9999 -9999 -9999 -9999 -9999 -9999 -9999 -9999 -9999 -9999 -9999 -9999 -9999 -9999 -9999 -9999 -9999 -9999 -9999 -9999 -9999 -9999 -9999 -9999 -9999 -9999 -9999 -9999 -9999 -9999 -9999 -9999 -9999 -9999 -9999 -9999 -9999 -9999 -9999 -9999 -9999 -9999 -9999 -9999 -9999 -9999 -9999 -9999 -9999 -9999 -9999 -9999 -9999 -9999 -9999 -9999 -9999 -9999 -9999 -9999 -9999 -9999 -9999 -9999 -9999 -9999 -9999 -9999 -9999 -9999 -9999 -9999 -9999 -9999 -9999 -9999 -9999 -9999 -9999 -9999 -9999 -9999 -9999 -9999 -9999 -9999 -9999 -9999 -9999 -9999 -9999 -9999 -9999 -9999 -9999 -9999 -9999 -9999 -9999 -9999 -9999 -9999 -9999 -9999 -9999 -9999 -9999 -9999 -9999 -9999 -9999 -9999 -9999 -9999 -9999 -9999 -9999 -9999 -9999 -9999 -9999 -9999 -34 -25 -153.25 -438.75 -977.75 -1191 -1533.25 -1621 -1749.25 -1823.25 -2011.5 -2025 -2082.25 -2062.25 -1964.25 -1954.25 -1815 -1796.5 -1814.5 -1814.5
-1433 -953 -761.5 -437 -292.5 -168 -153.5 -183.5 -187.5 -177 -163.5 -163 -170.5 -182 -177 -184 -177 -164.5 -158.5 -138 -128.5 -121.5 -107.5 -36 -21.5 -15 -15 -2 -9999 -9999 -9999 -9999 -9999 -9999 -9999 -9999 -9999 -9999 -9999 -9999 -9999 -9999 -9999 -9999 -9999 -9999 -9999 -9999 -9999 -9999 -9999 -9999 -9999 -9999 -9999 -9999 -9999 -9999 -9999 -9999 -9999 -9999 -9999 -9999 -9999 -9999 -9999 -9999 -9999 -9999 -9999 -9999 -9999 -9999 -9999 -9999 -9999 -9999 -9999 -9999 -9999 -9999 -9999 -9999 -9999 -9999 -9999 -9999 -9999 -9999 -9999 -9999 -9999 -9999 -9999 -9999 -9999 -9999 -9999 -9999 -9999 -9999 -9999 -9999 -9999 -9999 -9999 -9999 -9999 -9999 -9999 -9999 -9999 -9999 -9999 -9999 -9999 -9999 -9999 -9999 -9999 -9999 -9999 -9999 -9999 -9999 -9999 -9999 -9999 -9999 -9999 -9999 -9999 -9999 -9999 -9999 -9999 -9999 -9999 -9999 -9999 -9999 -9999 -9999 -9999 -9999 -9999 -9999 -9999 -9999 -9999 -9999 -9999 -9999 -9999 -9999 -9999 -9999 -9999 -9999 -9999 -9999 -9999 -9999 -9999 -9999 -9999 -9999 -9999 -9999 -9999 -9999 -9999 -9999 -9999 -9999 -9999 -9999 -9999 0 -6.33333333333333 -34 -42 -409.5 -716 -1093.5 -1340.5 -1603.5 -1667.5 -1763.5 -1801.5 -1861.5 -1930.5 -2118 -2132 -2033 -1982 -1847 -1849.5 -1821 -1821
-1423.5 -986 -784.25 -432 -296 -187.75 -157 -216.25 -207.5 -179.25 -174.75 -167.75 -159.5 -177 -183 -177.25 -179.75 -171.25 -159.75 -145.25 -138.5 -130 -124 -101.25 -85.5 -33.3333333333333 -2 -2 -9999 -9999 -9999 -9999 -9999 -9999 -9999 -9999 -9999 -9999 -9999 -9999 -9999 -9999 -9999 -9999 -9999 -9999 -9999 -9999 -9999 -9999 -9999 -9999 -9999 -9999 -9999 -9999 -9999 -9999 -9999 -9999 -9999 -9999 -9999 -9999 -9999 -9999 -9999 -9999 -9999 -9999 -9999 -9999 -9999 -9999 -9999 -9999 -9999 -9999 -9999 -9999 -9999 -9999 -9999 -9999 -9999 -9999 -9999 -9999 -9999 -9999 -9999 -9999 -9999 -9999 -9999 -9999 -9999 -9999 -9999 -9999 -9999 -9999 -9999 -9999 -9999 -9999 -9999 -9999 -9999 -9999 -9999 -9999 -9999 -9999 -9999 -9999 -9999 -9999 -9999 -9999 -9999 -9999 -9999 -9999 -9999 -9999 -9999 -9999 -9999 -9999 -9999 -9999 -9999 -9999 -9999 -9999 -9999 -9999 -9999 -9999 -9999 -9999 -9999 -9999 -9999 -9999 -9999 -9999 -9999 -9999 -9999 -9999 -9999 -9999 -9999 -9999 -9999 -9999 -9999 -9999 -9999 -9999 -9999 -9999 -9999 -9999 -9999 -9999 -9999 -9999 -9999 -9999 -9999 -9999 -9999 -9999 -9999 -3 -4.5 0 -6.33333333333333 -48 -132.25 -663.75 -868.25 -1322.75 -1504.25 -1648.25 -1681.75 -1790.75 -1798.5 -1808.75 -1955.25 -2199.25 -2215 -2192 -2091.75 -1834.5 -1742.75 -1706.25 -1706.25
-1453.5 -1035 -837 -415 -243.5 -190.5 -175.5 -205.5 -208.5 -203 -199 -183 -170 -158.5 -180 -180.5 -181.5 -193.5 -185 -163 -158.5 -140 -132 -126 -122 -90 -43.5 -43.5 -23 -9999 -9999 -9999 -9999 -9999 -9999 -9999 -9999 -9999 -9999 -9999 -9999 -9999 -9999 -9999 -9999 -9999 -9999 -9999 -9999 -9999 -9999 -9999 -9999 -9999 -9999 -9999 -9999 -9999 -9999 -9999 -9999 -9999 -9999 -9999 -9999 -9999 -9999 -9999 -9999 -9999 -9999 -9999 -9999 -9999 -9999 -9999 -9999 -9999 -9999 -9999 -9999 -9999 -9999 -9999 -9999 -9999 -9999 -9999 -9999 -9999 -9999 -9999 -9999 -9999 -9999 -9999 -9999 -9999 -9999 -9999 -9999 -9999 -9999 -9999 -9999 -9999 -9999 -9999 -9999 -9999 -9999 -9999 -9999 -9999 -9999 -9999 -9999 -9999 -9999 -9999 -9999 -9999 -9999 -9999 -9999 -9999 -9999 -9999 -9999 -9999 -9999 -9999 -9999 -9999 -9999 -9999 -9999 -9999 -9999 -9999 -9999 -9999 -9999 -9999 -9999 -9999 -9999 -9999 -9999 -9999 -9999 -9999 -9999 -9999 -9999 -9999 -9999 -9999 -9999 -9999 -9999 -9999 -9999 -9999 -9999 -9999 -9999 -9999 -9999 -9999 -9999 -9999 -9999 -9999 -9999 -9999 -22 -3 -4.5 -12.5 -25.5 -116.5 -375.5 -892.5 -1102 -1457.5 -1552 -1612 -1683 -1833 -1895.5 -2039 -2134.5 -2202.5 -2195 -2276.5 -2267 -2156 -2042 -1917.5 -1917.5
-1431.75 -1154.75 -953.25 -504 -341 -245.75 -246.75 -191.75 -182.25 -202.75 -218.25 -185 -177.75 -167.5 -158 -178.75 -176.75 -171.75 -181.25 -172.75 -170.5 -154.5 -146.5 -133.5 -129.25 -113.5 -85.25 -23 -23 -15 -9999 -9999 -9999 -9999 -9999 -9999 -9999 -9999 -9999 -9999 -9999 -9999 -9999 -9999 -9999 -9999 -9999 -9999 -9999 -9999 -9999 -9999 -9999 -9999 -9999 -9999 -9999 -9999 -9999 -9999 -9999 -9999 -9999 -9999 -9999 -9999 -9999 -9999 -9999 -9999 -9999 -9999 -9999 -9999 -9999 -9999 -9999 -9999 -9999 -9999 -9999 -9999 -9999 -9999 -9999 -9999 -9999 -9999 -9999 -9999 -9999 -9999 -9999 -9999 -9999 -9999 -9999 -9999 -9999 -9999 -9999 -9999 -9999 -9999 -9999 -9999 -9999 -9999 -9999 -9999 -9999 -9999 -9999 -9999 -9999 -9999 -9999 -9999 -9999 -9999 -9999 -9999 -9999 -9999 -9999 -9999 -9999 -9999 -9999 -9999 -9999 -9999 -9999 -9999 -9999 -9999 -9999 -9999 -9999 -9999 -9999 -9999 -9999 -9999 -9999 -9999 -9999 -9999 -9999 -9999 -9999 -9999 -9999 -9999 -9999 -9999 -9999 -9999 -9999 -9999 -9999 -9999 -9999 -9999 -9999 -9999 -9999 -9999 -9999 -9999 -9999 -9999 -9999 -9999 -9999 -15 -22 -26 -29.5 -33 -44.5 -365 -665.75 -1193.75 -1451 -1479 -1495 -1639.25 -1700.75 -1852.25 -1866.25 -2069.5 -2122.25 -2168.75 -2276.25 -2417.75 -2408 -2323.5 -2338.5 -2314.5 -2314.5
-1562 -1276.5 -1061.5 -620.5 -479 -261 -236 -224.5 -192 -164.5 -201 -201 -187.5 -187.5 -171.5 -172 -180 -175 -173.5 -176 -172 -164 -155 -140 -135 -126 -112 -49.5 -15 -15 -9999 -9999 -9999 -9999 -9999 -9999 -9999 -9999 -9999 -9999 -9999 -9999 -9999 -9999 -9999 -9999 -9999 -9999 -9999 -9999 -9999 -9999 -9999 -9999 -9999 -9999 -9999 -9999 -9999 -9999 -9999 -9999 -9999 -9999 -9999 -9999 -9999 -9999 -9999 -9999 -9999 -9999 -9999 -9999 -9999 -9999 -9999 -9999 -9999 -9999 -9999 -9999 -9999 -9999 -9999 -9999 -9999 -9999 -9999 -9999 -9999 -9999 -9999 -9999 -9999 -9999 -9999 -9999 -9999 -9999 -9999 -9999 -9999 -9999 -9999 -9999 -9999 -9999 -9999 -9999 -9999 -9999 -9999 -9999 -9999 -9999 -9999 -9999 -9999 -9999 -9999 -9999 -9999 -9999 -9999 -9999 -9999 -9999 -9999 -9999 -9999 -9999 -9999 -9999 -9999 -9999 -9999 -9999 -9999 -9999 -9999 -9999 -9999 -9999 -9999 -9999 -9999 -9999 -9999 -9999 -9999 -9999 -9999 -9999 -9999 -9999 -9999 -9999 -9999 -9999 -9999 -9999 -9999 -9999 -9999 -9999 -9999 -9999 -9999 -9999 -9999 -9999 -9999 -9999 -33 -15 -22.5 -36 -39 -45 -145.5 -680.5 -890.5 -1146 -1346.5 -1501 -1559 -1666.5 -1716.5 -1880 -1903 -2075.5 -2107.5 -2261 -2365.5 -2539 -2539 -2693.5 -2772.5 -2481 -2481
-1629.25 -1286.5 -1089 -713 -593.75 -397.25 -333.25 -231 -206.5 -182.25 -195.5 -178.75 -183.5 -189.5 -183.75 -179.5 -180.75 -175.75 -174.5 -179.5 -173.75 -165 -158 -141.75 -137.5 -127.75 -122 -86 -71.5 -71.5 -9999 -9999 -9999 -9999 -9999 -9999 -9999 -9999 -9999 -9999 -9999 -9999 -9999 -9999 -9999 -9999 -9999 -9999 -9999 -9999 -9999 -9999 -9999 -9999 -9999 -9999 -9999 -9999 -9999 -9999 -9999 -9999 -9999 -9999 -9999 -9999 -9999 -9999 -9999 -9999 -9999 -9999 -9999 -9999 -9999 -9999 -9999 -9999 -9999 -9999 -9999 -9999 -9999 -9999 -9999 -9999 -9999 -9999 -9999 -9999 -9999 -9999 -9999 -9999 -9999 -9999 -9999 -9999 -9999 -9999 -9999 -9999 -9999 -9999 -9999 -9999 -9999 -9999 -9999 -9999 -9999 -9999 -9999 -9999 -9999 -9999 -9999 -9999 -9999 -9999 -9999 -9999 -9999 -9999 -9999 -9999 -9999 -9999 -9999 -9999 -9999 -9999 -9999 -9999 -9999 -9999 -9999 -9999 -9999 -9999 -9999 -9999 -9999 -9999 -9999 -9999 -9999 -9999 -9999 -9999 -9999 -9999 -9999 -9999 -9999 -9999 -9999 -9999 -9999 -9999 -9999 -9999 -9999 -9999 -9999 -9999 -9999 -9999 -9999 -9999 -9999 -9999 -9999 -44 -33 -35 -45.25 -49.5 -52.25 -145.75 -358.5 -865.75 -1036.25 -1357.25 -1444.5 -1568 -1568.5 -1730.5 -1771 -1849.25 -1928.25 -2134.75 -2078 -2112.75 -2056.75 -1687.75 -1749.25 -2266 -2443.75 -2502.25 -2502.25
-1747 -1338.5 -1134.5 -786.5 -691 -424 -380.5 -229.5 -212.5 -177 -175.5 -170 -180 -201.5 -189 -182 -182 -178 -175.5 -179.5 -172.5 -163 -157.5 -145.5 -141 -129 -126.5 -102 -65 -65 -14 -9999 -9999 -9999 -9999 -9999 -9999 -9999 -9999 -9999 -9999 -9999 -9999 -9999 -9999 -9999 -9999 -9999 -9999 -9999 -9999 -9999 -9999 -9999 -9999 -9999 -9999 -9999 -9999 -9999 -9999 -9999 -9999 -9999 -9999 -9999 -9999 -9999 -9999 -9999 -9999 -9999 -9999 -9999 -9999 -9999 -9999 -9999 -9999 -9999 -9999 -9999 -9999 -9999 -9999 -9999 -9999 -9999 -9999 -9999 -9999 -9999 -9999 -9999 -9999 -9999 -9999 -9999 -9999 -9999 -9999 -9999 -9999 -9999 -9999 -9999 -9999 -9999 -9999 -9999 -9999 -9999 -9999 -9999 -9999 -9999 -9999 -9999 -9999 -9999 -9999 -9999 -9999 -9999 -9999 -9999 -9999 -9999 -9999 -9999 -9999 -9999 -9999 -9999 -9999 -9999 -9999 -9999 -9999 -9999 -9999 -9999 -9999 -9999 -9999 -9999 -9999 -9999 -9999 -9999 -9999 -9999 -9999 -9999 -9999 -9999 -9999 -9999 -9999 -9999 -9999 -9999 -9999 -9999 -9999 -9999 -9999 -9999 -9999 -9999 -9999 -9999 -49 -44 -46 -48.5 -48.5 -40.5 -42.5 -472 -729 -1047 -1175.5 -1478.5 -1533 -1646.5 -1673 -1764 -1807 -1810 -1915 -1993.5 -1939.5 -1831 -1751 -1753 -1908 -2291 -2450.5 -2501 -2501
-1885.75 -1349.5 -1128.75 -829.25 -688.25 -468.25 -393.75 -304.25 -282.5 -224.75 -223.5 -214.5 -187 -210.75 -190 -174.75 -177.25 -179.5 -179 -182.75 -178.75 -166.5 -162 -152.25 -148.25 -139.75 -131 -114.25 -89.5 -14 -14 -9999 -9999 -9999 -9999 -9999 -9999 -9999 -9999 -9999 -9999 -9999 -9999 -9999 -9999 -9999 -9999 -9999 -9999 -9999 -9999 -9999 -9999 -9999 -9999 -9999 -9999 -9999 -9999 -9999 -9999 -9999 -9999 -9999 -9999 -9999 -9999 -9999 -9999 -9999 -9999 -9999 -9999 -9999 -9999 -9999 -9999 -9999 -9999 -9999 -9999 -9999 -9999 -9999 -9999 -9999 -9999 -9999 -9999 -9999 -9999 -9999 -9999 -9999 -9999 -9999 -9999 -9999 -9999 -9999 -9999 -9999 -9999 -9999 -9999 -9999 -9999 -9999 -9999 -9999 -9999 -9999 -9999 -9999 -9999 -9999 -9999 -9999 -9999 -9999 -9999 -9999 -9999 -9999 -9999 -9999 -9999 -9999 -9999 -9999 -9999 -9999 -9999 -9999 -9999 -9999 -9999 -9999 -9999 -9999 -9999 -9999 -9999 -9999 -9999 -9999 -9999 -9999 -9999 -9999 -9999 -9999 -9999 -9999 -9999 -9999 -9999 -9999 -9999 -9999 -9999 -9999 -9999 -9999 -9999 -9999 -9999 -9999 -9999 -9999 -9999 -12 -49 -53.5 -61.5 -68.5 -66.75 -80.5 -219.5 -726.75 -874 -1239.75 -1362 -1523.75 -1594.5 -1690.25 -1763.75 -1900.25 -1975.5 -2007 -2057.25 -2002.5 -2024.5 -2066.25 -2139 -2257.75 -2328.25 -2437 -2499.25 -2479.5 -2479.5
-1780 -1331 -1105.5 -897 -713 -464 -406 -370.5 -325.5 -264 -245 -224.5 -204 -185 -176 -168 -179 -177.5 -182.5 -182 -177.5 -169 -167.5 -156 -151.5 -148.5 -138 -125 -114 -42 -42 -22 -9999 -9999 -9999 -9999 -9999 -9999 -9999 -9999 -9999 -9999 -9999 -9999 -9999 -9999 -9999 -9999 -9999 -9999 -9999 -9999 -9999 -9999 -9999 -9999 -9999 -9999 -9999 -9999 -9999 -9999 -9999 -9999 -9999 -9999 -9999 -9999 -9999 -9999 -9999 -9999 -9999 -9999 -9999 -9999 -9999 -9999 -9999 -9999 -9999 -9999 -9999 -9999 -9999 -9999 -9999 -9999 -9999 -9999 -9999 -9999 -9999 -9999 -9999 -9999 -9999 -9999 -9999 -9999 -9999 -9999 -9999 -9999 -9999 -9999 -9999 -9999 -9999 -9999 -9999 -9999 -9999 -9999 -9999 -9999 -9999 -9999 -9999 -9999 -9999 -9999 -9999 -9999 -9999 -9999 -9999 -9999 -9999 -9999 -9999 -9999 -9999 -9999 -9999 -9999 -9999 -9999 -9999 -9999 -9999 -9999 -9999 -9999 -9999 -9999 -9999 -9999 -9999 -9999 -9999 -9999 -9999 -9999 -9999 -9999 -9999 -9999 -9999 -9999 -9999 -9999 -9999 -9999 -9999 -9999 -9999 -9999 -9999 -9999 -9999 -12 -31.5 -67.5 -72.5 -113.5 -131 -202.5 -499.5 -816 -895.5 -1280.5 -1429.5 -1410.5 -1402 -1679.5 -1709 -1779.5 -1862 -1886 -1837.5 -2038 -2029 -2068 -2241.5 -2353.5 -2426 -2558.5 -2609.5 -2581.5 -2581.5
-1685.25 -1242.5 -949.5 -760.75 -782 -563.5 -509.75 -383.25 -339.75 -322 -277.75 -268.25 -202 -178.75 -178.5 -169.75 -179.75 -182 -185.25 -186.25 -181.25 -171.75 -169.5 -167 -159.25 -153.75 -144.5 -127.75 -121.75 -60 -22 -22 -9999 -9999 -9999 -9999 -9999 -9999 -9999 -9999 -9999 -9999 -9999 -9999 -9999 -9999 -9999 -9999 -9999 -9999 -9999 -9999 -9999 -9999 -9999 -9999 -9999 -9999 -9999 -9999 -9999 -9999 -9999 -9999 -9999 -9999 -9999 -9999 -9999 -9999 -9999 -9999 -9999 -9999 -9999 -9999 -9999 -9999 -9999 -9999 -9999 -9999 -9999 -9999 -9999 -9999 -9999 -9999 -9999 -9999 -9999 -9999 -9999 -9999 -9999 -9999 -9999 -9999 -9999 -9999 -9999 -9999 -9999 -9999 -9999 -9999 -9999 -9999 -9999 -9999 -9999 -9999 -9999 -9999 -9999 -9999 -9999 -9999 -9999 -9999 -9999 -9999 -9999 -9999 -9999 -9999 -9999 -9999 -9999 -9999 -9999 -9999 -9999 -9999 -9999 -9999 -9999 -9999 -9999 -9999 -9999 -9999 -9999 -9999 -9999 -9999 -9999 -9999 -9999 -9999 -9999 -9999 -9999 -9999 -9999 -9999 -9999 -9999 -9999 -9999 -9999 -9999 -9999 -9999 -9999 -9999 -9999 -9999 -9999 -9999 -13 -48 -58.25 -95.25 -146.5 -272.5 -292 -546.25 -647 -942.25 -1025.25 -1362.5 -1395.75 -1375.25 -1370.5 -1592.75 -1670 -1782.75 -1809 -1934.5 -2009.25 -2144 -2116.5 -2342.75 -2444.25 -2570.75 -2631.25 -2632.75 -2579 -2521.75 -2521.75
-1730 -1274.5 -1104 -860 -737.5 -580.5 -509.5 -468.5 -434.5 -365.5 -362.5 -240 -218.5 -202 -196 -199.5 -192.5 -190.5 -187.5 -188.5 -170.5 -183 -177 -165 -161.5 -156 -150 -133.5 -128.5 -84 -51 -51 -9999 -9999 -9999 -9999 -9999 -9999 -9999 -9999 -9999 -9999 -9999 -9999 -9999 -9999 -9999 -9999 -9999 -9999 -9999 -9999 -9999 -9999 -9999 -9999 -9999 -9999 -9999 -9999 -9999 -9999 -9999 -9999 -9999 -9999 -9999 -9999 -9999 -9999 -9999 -9999 -9999 -9999 -9999 -9999 -9999 -9999 -9999 -9999 -9999 -9999 -9999 -9999 -9999 -9999 -9999 -9999 -9999 -9999 -9999 -9999 -9999 -9999 -9999 -9999 -9999 -9999 -9999 -9999 -9999 -9999 -9999 -9999 -9999 -9999 -9999 -9999 -9999 -9999 -9999 -9999 -9999 -9999 -9999 -9999 -9999 -9999 -9999 -9999 -9999 -9999 -9999 -9999 -9999 -9999 -9999 -9999 -9999 -9999 -9999 -9999 -9999 -9999 -9999 -9999 -9999 -9999 -9999 -9999 -9999 -9999 -9999 -9999 -9999 -9999 -9999 -9999 -9999 -9999 -9999 -9999 -9999 -9999 -9999 -9999 -9999 -9999 -9999 -9999 -9999 -9999 -9999 -9999 -9999 -9999 -9999 -9999 -9999 -9999 -13 -56 -83 -242 -318 -395 -434 -771.5 -863.5 -1221 -1221.5 -1434.5 -1485 -1539 -1529 -1551 -1635 -1760 -1769 -1957.5 -2017.5 -2197.5 -2330.5 -2606.5 -2649 -2651.5 -2664.5 -2615 -2588.5 -2551.5 -2551.5
-1870.25 -1421.5 -1208.25 -878 -731.25 -546.25 -484.75 -431.75 -402.25 -394.75 -367.25 -275.5 -236 -210 -217.25 -195.75 -177 -192 -192.25 -185.75 -179.5 -182.75 -179.25 -176.25 -174.25 -162.75 -156.25 -135.25 -132.25 -112 -73.6666666666667 -73.6666666666667 -9999 -9999 -9999 -9999 -9999 -9999 -9999 -9999 -9999 -9999 -9999 -9999 -9999 -9999 -9999 -9999 -9999 -9999 -9999 -9999 -9999 -9999 -9999 -9999 -9999 -9999 -9999 -9999 -9999 -9999 -9999 -9999 -9999 -9999 -9999 -9999 -9999 -9999 -9999 -9999 -9999 -9999 -9999 -9999 -9999 -9999 -9999 -9999 -9999 -9999 -9999 -9999 -9999 -9999 -9999 -9999 -9999 -9999 -9999 -9999 -9999 -9999 -9999 -9999 -9999 -9999 -9999 -9999 -9999 -9999 -9999 -9999 -9999 -9999 -9999 -9999 -9999 -9999 -9999 -9999 -9999 -9999 -9999 -9999 -9999 -9999 -9999 -9999 -9999 -9999 -9999 -9999 -9999 -9999 -9999 -9999 -9999 -9999 -9999 -9999 -9999 -9999 -9999 -9999 -9999 -9999 -9999 -9999 -9999 -9999 -9999 -9999 -9999 -9999 -9999 -9999 -9999 -9999 -9999 -9999 -9999 -9999 -9999 -9999 -9999 -9999 -9999 -9999 -9999 -9999 -9999 -9999 -9999 -9999 -9999 -9999 -9999 -25 -31.5 -169.5 -286.5 -412 -428.5 -507.5 -630.5 -851.75 -939 -1232.75 -1414.25 -1471 -1542.75 -1536.5 -1532.5 -1556.5 -1615.25 -1781.25 -1856.75 -1993.25 -2052.5 -2229.75 -2371.75 -2659.75 -2727 -2718 -2707.5 -2679 -2650 -2601.5 -2601.5
-1661.5 -1573 -1365 -946.5 -774 -541.5 -502 -462 -445 -440 -404 -277 -239.5 -219 -201 -172.5 -191.5 -194.5 -186.5 -200.5 -195 -180.5 -179 -182 -181.5 -171.5 -163.5 -146.5 -138 -124 -79 -79 -21 -9999 -9999 -9999 -9999 -9999 -9999 -9999 -9999 -9999 -9999 -9999 -9999 -9999 -9999 -9999 -9999 -9999 -9999 -9999 -9999 -9999 -9999 -9999 -9999 -9999 -9999 -9999 -9999 -9999 -9999 -9999 -9999 -9999 -9999 -9999 -9999 -9999 -9999 -9999 -9999 -9999 -9999 -9999 -9999 -9999 -9999 -9999 -9999 -9999 -9999 -9999 -9999 -9999 -9999 -9999 -9999 -9999 -9999 -9999 -9999 -9999 -9999 -9999 -9999 -9999 -9999 -9999 -9999 -9999 -9999 -9999 -9999 -9999 -9999 -9999 -9999 -9999 -9999 -9999 -9999 -9999 -9999 -9999 -9999 -9999 -9999 -9999 -9999 -9999 -9999 -9999 -9999 -9999 -9999 -9999 -9999 -9999 -9999 -9999 -9999 -9999 -9999 -9999 -9999 -9999 -9999 -9999 -9999 -9999 -9999 -9999 -9999 -9999 -9999 -9999 -9999 -9999 -9999 -9999 -9999 -9999 -9999 -9999 -9999 -9999 -9999 -9999 -9999 -9999 -9999 -9999 -9999 -9999 -9999 -9999 -24 -25 -87.5 -391.5 -422.5 -480 -435 -627.5 -818 -944.5 -1017.5 -1229.5 -1552.5 -1662 -1555.5 -1591 -1585 -1602 -1649.5 -1800.5 -1899.5 -2053 -2094 -2252.5 -2420 -2666 -2735 -2752.5 -2735 -2712 -2705 -2656 -2656
-1447.5 -1466.5 -1361.25 -1072 -899.75 -638.75 -554 -485 -483 -478.5 -431.25 -313 -295 -243.75 -234.75 -216 -209.5 -204.5 -197 -197.5 -192.75 -186 -186 -184.75 -180 -179 -176.75 -152.75 -145.75 -130.75 -122 -21 -21 -9999 -9999 -9999 -9999 -9999 -9999 -9999 -9999 -9999 -9999 -9999 -9999 -9999 -9999 -9999 -9999 -9999 -9999 -9999 -9999 -9999 -9999 -9999 -9999 -9999 -9999 -9999 -9999 -9999 -9999 -9999 -9999 -9999 -9999 -9999 -9999 -9999 -9999 -9999 -9999 -9999 -9999 -9999 -9999 -9999 -9999 -9999 -9999 -9999 -9999 -9999 -9999 -9999 -9999 -9999 -9999 -9999 -9999 -9999 -9999 -9999 -9999 -9999 -9999 -9999 -9999 -9999 -9999 -9999 -9999 -9999 -9999 -9999 -9999 -9999 -9999 -9999 -9999 -9999 -9999 -9999 -9999 -9999 -9999 -9999 -9999 -9999 -9999 -9999 -9999 -9999 -9999 -9999 -9999 -9999 -9999 -9999 -9999 -9999 -9999 -9999 -9999 -9999 -9999 -9999 -9999 -9999 -9999 -9999 -9999 -9999 -9999 -9999 -9999 -9999 -9999 -9999 -9999 -9999 -9999 -9999 -9999 -9999 -9999 -9999 -9999 -9999 -9999 -9999 -9999 -9999 -9999 -9999 -9999 -9999 -24 -102.75 -247.75 -464.75 -478 -551.25 -622 -818.5 -890.5 -995.25 -1044.5 -1256 -1416.25 -1777 -1933.5 -1684 -1654.75 -1668.25 -1769 -1969.25 -1838.25 -1882.75 -2017.75 -2342.75 -2502.5 -2765.75 -2793 -2796.75 -2767 -2733.5 -2715.25 -2697.5 -2697.5
-1910 -1630 -1504.5 -1278.5 -1083.5 -751 -643 -543.5 -503.5 -475 -459.5 -311.5 -298 -263.5 -244.5 -229.5 -220.5 -213 -211 -208.5 -204.5 -198.5 -193.5 -189.5 -186 -190.5 -187 -167 -153 -132 -127.5 -118 -118 -29.5 -9999 -9999 -9999 -9999 -9999 -9999 -9999 -9999 -9999 -9999 -9999 -9999 -9999 -9999 -9999 -9999 -9999 -9999 -9999 -9999 -9999 -9999 -9999 -9999 -9999 -9999 -9999 -9999 -9999 -9999 -9999 -9999 -9999 -9999 -9999 -9999 -9999 -9999 -9999 -9999 -9999 -9999 -9999 -9999 -9999 -9999 -9999 -9999 -9999 -9999 -9999 -9999 -9999 -9999 -9999 -9999 -9999 -9999 -9999 -9999 -9999 -9999 -9999 -9999 -9999 -9999 -9999 -9999 -9999 -9999 -9999 -9999 -9999 -9999 -9999 -9999 -9999 -9999 -9999 -9999 -9999 -9999 -9999 -9999 -9999 -9999 -9999 -9999 -9999 -9999 -9999 -9999 -9999 -9999 -9999 -9999 -9999 -9999 -9999 -9999 -9999 -9999 -9999 -9999 -9999 -9999 -9999 -9999 -9999 -9999 -9999 -9999 -9999 -9999 -9999 -9999 -9999 -9999 -9999 -9999 -9999 -9999 -9999 -9999 -9999 -9999 -9999 -9999 -9999 -9999 -9999 -9999 -9999 -24.5 -35 -220 -393.5 -561 -618 -699 -837 -1033.5 -1038.5 -1361 -1410 -1456 -1521 -1667.5 -2001 -2122.5 -2020.5 -1933 -1927 -1892 -1640.5 -1955.5 -2105 -2532 -2668 -2807 -2829 -2866 -2818 -2821 -2800 -2731.5 -2731.5
-1996 -1809 -1681.5 -1462.75 -1263.75 -877.5 -763.25 -604.5 -545 -458.75 -411.75 -308.5 -284 -268.5 -261 -256.75 -243.5 -224 -226.25 -217.5 -215.5 -210.75 -208.25 -201.25 -199.5 -199 -194.75 -176.25 -163.75 -148.25 -141.5 -80 -29.5 -29.5 -9999 -9999 -9999 -9999 -9999 -9999 -9999 -9999 -9999 -9999 -9999 -9999 -9999 -9999 -9999 -9999 -9999 -9999 -9999 -9999 -9999 -9999 -9999 -9999 -9999 -9999 -9999 -9999 -9999 -9999 -9999 -9999 -9999 -9999 -9999 -9999 -9999 -9999 -9999 -9999 -9999 -9999 -9999 -9999 -9999 -9999 -9999 -9999 -9999 -9999 -9999 -9999 -9999 -9999 -9999 -9999 -9999 -9999 -9999 -9999 -9999 -9999 -9999 -9999 -9999 -9999 -9999 -9999 -9999 -9999 -9999 -9999 -9999 -9999 -9999 -9999 -9999 -9999 -9999 -9999 -9999 -9999 -9999 -9999 -9999 -9999 -9999 -9999 -9999 -9999 -9999 -9999 -9999 -9999 -9999 -9999 -9999 -9999 -9999 -9999 -9999 -9999 -9999 -9999 -9999 -9999 -9999 -9999 -9999 -9999 -9999 -9999 -9999 -9999 -9999 -9999 -9999 -9999 -9999 -9999 -9999 -9999 -9999 -9999 -9999 -9999 -9999 -9999 -9999 -9999 -9999 -9999 -9999 -24.5 -56.5 -379.75 -559.5 -801.75 -901.75 -1181.25 -1372 -2108.5 -2234 -2418.5 -2399.5 -2268.75 -2218.25 -2226.25 -2283 -2334.75 -2424.75 -2573.5 -2331.75 -2112.25 -2066.5 -2242.25 -2317.25 -2623 -2751.75 -2844 -2855 -2887 -2865.25 -2804.5 -2762.75 -2755.75 -2755.75
-2247 -2056 -1949 -1595.5 -1412 -1101 -976 -728.5 -657 -524 -461.5 -358 -321.5 -291.5 -273 -285 -277 -239.5 -237.5 -232.5 -232 -222 -222.5 -217.5 -216 -208 -198.5 -189 -177.5 -156 -146.5 -133 -62.5 -62.5 -12 -9999 -9999 -9999 -9999 -9999 -9999 -9999 -9999 -9999 -9999 -9999 -9999 -9999 -9999 -9999 -9999 -9999 -9999 -9999 -9999 -9999 -9999 -9999 -9999 -9999 -9999 -9999 -9999 -9999 -9999 -9999 -9999 -9999 -9999 -9999 -9999 -9999 -9999 -9999 -9999 -9999 -9999 -9999 -9999 -9999 -9999 -9999 -9999 -9999 -9999 -9999 -9999 -9999 -9999 -9999 -9999 -9999 -9999 -9999 -9999 -9999 -9999 -9999 -9999 -9999 -9999 -9999 -9999 -9999 -9999 -9999 -9999 -9999 -9999 -9999 -9999 -9999 -9999 -9999 -9999 -9999 -9999 -9999 -9999 -9999 -9999 -9999 -9999 -9999 -9999 -9999 -9999 -9999 -9999 -9999 -9999 -9999 -9999 -9999 -9999 -9999 -9999 -9999 -9999 -9999 -9999 -9999 -9999 -9999 -9999 -9999 -9999 -9999 -9999 -9999 -9999 -9999 -9999 -9999 -9999 -9999 -9999 -9999 -9999 -9999 -9999 -9999 -9999 -9999 -9999 -9999 -29 -55.5 -196 -585 -714 -1178.5 -1358 -1956 -2261.5 -2736 -2853 -2898 -2992.5 -2884 -2853.5 -2828 -2852 -2815.5 -2788 -2859.5 -2834.5 -2754 -2709 -2648.5 -2646.5 -2775 -2797 -2868 -2866 -2809.5 -2810.5 -2792.5 -2807 -2777 -2777
-2478.25 -2245 -2109.75 -1869 -1683.5 -1341.75 -1207 -973 -881.25 -678.25 -596.25 -438 -353.25 -327 -309.25 -282.75 -277 -288.75 -282.5 -259.75 -245.75 -241.5 -236.25 -230.25 -226.25 -214.5 -204.5 -194.5 -180.25 -162.75 -152.75 -139.75 -106.5 -12 -12 -9999 -9999 -9999 -9999 -9999 -9999 -9999 -9999 -9999 -9999 -9999 -9999 -9999 -9999 -9999 -9999 -9999 -9999 -9999 -9999 -9999 -9999 -9999 -9999 -9999 -9999 -9999 -9999 -9999 -9999 -9999 -9999 -9999 -9999 -9999 -9999 -9999 -9999 -9999 -9999 -9999 -9999 -9999 -9999 -9999 -9999 -9999 -9999 -9999 -9999 -9999 -9999 -9999 -9999 -9999 -9999 -9999 -9999 -9999 -9999 -9999 -9999 -9999 -9999 -9999 -9999 -9999 -9999 -9999 -9999 -9999 -9999 -9999 -9999 -9999 -9999 -9999 -9999 -9999 -9999 -9999 -9999 -9999 -9999 -9999 -9999 -9999 -9999 -9999 -9999 -9999 -9999 -9999 -9999 -9999 -9999 -9999 -9999 -9999 -9999 -9999 -9999 -9999 -9999 -9999 -9999 -9999 -9999 -9999 -9999 -9999 -9999 -9999 -9999 -9999 -9999 -9999 -9999 -9999 -9999 -9999 -9999 -9999 -9999 -9999 -9999 -9999 -9999 -9999 -9999 -35 -29 -197.25 -449.5 -898.5 -1170.5 -1689.5 -1982.25 -2537.5 -2754 -2898 -2880.5 -2917.75 -2941.25 -2964 -2979.5 -2994 -2980 -3030 -3011.25 -3022.5 -3011.75 -3038.25 -3015.25 -2851 -2883.75 -2900.5 -2920.5 -2920 -2908.75 -2854.5 -2858.25 -2841 -2872.25 -2797 -2797
-2512.5 -2317 -2250.5 -1991 -1865 -1583 -1404 -1188.5 -1140.5 -967.5 -842 -594.5 -505 -347 -329.5 -301 -280 -299 -275 -268.5 -253 -255.5 -251 -240 -235.5 -219.5 -209.5 -198.5 -186 -169 -158.5 -144.5 -132 -32 -32 -31.5 -9999 -9999 -9999 -9999 -9999 -9999 -9999 -9999 -9999 -9999 -9999 -9999 -9999 -9999 -9999 -9999 -9999 -9999 -9999 -9999 -9999 -9999 -9999 -9999 -9999 -9999 -9999 -9999 -9999 -9999 -9999 -9999 -9999 -9999 -9999 -9999 -9999 -9999 -9999 -9999 -9999 -9999 -9999 -9999 -9999 -9999 -9999 -9999 -9999 -9999 -9999 -9999 -9999 -9999 -9999 -9999 -9999 -9999 -9999 -9999 -9999 -9999 -9999 -9999 -9999 -9999 -9999 -9999 -9999 -9999 -9999 -9999 -9999 -9999 -9999 -9999 -9999 -9999 -9999 -9999 -9999 -9999 -9999 -9999 -9999 -9999 -9999 -9999 -9999 -9999 -9999 -9999 -9999 -9999 -9999 -9999 -9999 -9999 -9999 -9999 -9999 -9999 -9999 -9999 -9999 -9999 -9999 -9999 -9999 -9999 -9999 -9999 -9999 -9999 -9999 -9999 -9999 -9999 -9999 -9999 -9999 -9999 -9999 -9999 -9999 -9999 -9999 -9999 -9999 -35 -54 -472.5 -773 -1390 -1729.5 -2227 -2614.5 -2790 -2856.5 -2920 -2908 -2898 -2916.5 -3028 -2973 -3004 -3009.5 -3006.5 -3008.5 -3107 -3092 -3028 -3052 -2890 -2949 -2998 -3019.5 -3051.5 -3078.5 -2922.5 -2882.5 -2859.5 -2942.5 -2815.5 -2815.5
-2532.75 -2392 -2375.25 -2244.25 -2096.75 -1787.75 -1666.75 -1567.5 -1559.75 -1439.5 -1263.75 -861.25 -715.25 -446.25 -381.5 -291.25 -268.5 -207.25 -202.25 -221.75 -251.5 -234.5 -246 -248.75 -242.75 -229.75 -225.75 -211.75 -197.75 -176.25 -165.25 -150.75 -142.25 -76.25 -31.5 -31.5 -9999 -9999 -9999 -9999 -9999 -9999 -9999 -9999 -9999 -9999 -9999 -9999 -9999 -9999 -9999 -9999 -9999 -9999 -9999 -9999 -9999 -9999 -9999 -9999 -9999 -9999 -9999 -9999 -9999 -9999 -9999 -9999 -9999 -9999 -9999 -9999 -9999 -9999 -9999 -9999 -9999 -9999 -9999 -9999 -9999 -9999 -9999 -9999 -9999 -9999 -9999 -9999 -9999 -9999 -9999 -9999 -9999 -9999 -9999 -9999 -9999 -9999 -9999 -9999 -9999 -9999 -9999 -9999 -9999 -9999 -9999 -9999 -9999 -9999 -9999 -9999 -9999 -9999 -9999 -9999 -9999 -9999 -9999 -9999 -9999 -9999 -9999 -9999 -9999 -9999 -9999 -9999 -9999 -9999 -9999 -9999 -9999 -9999 -9999 -9999 -9999 -9999 -9999 -9999 -9999 -9999 -9999 -9999 -9999 -9999 -9999 -9999 -9999 -9999 -9999 -9999 -9999 -9999 -9999 -9999 -9999 -9999 -9999 -9999 -9999 -9999 -9999 -9999 -42 -43 -253.75 -1205.25 -1414 -1982.25 -2217.25 -2805.5 -2888.75 -2954.25 -2993.75 -2930.5 -2873.5 -2883.25 -2893.5 -2991.25 -2980.25 -3049.75 -3127.75 -3120 -3094.5 -3026 -3026.25 -3016.75 -3045.75 -3057.75 -3056.5 -3083 -3058.5 -3137 -3126.25 -2911.25 -2899.25 -2956 -2938.75 -2897 -2897
-2567.5 -2513.5 -2450 -2347.5 -2253 -2046.5 -1917.5 -1950.5 -1948.5 -1794 -1583.5 -1201.5 -1025 -531.5 -408.5 -320 -254 -198.5 -192.5 -235 -272 -246.5 -256 -259.5 -251 -235.5 -231.5 -221.5 -208.5 -185 -178 -157 -146 -130 -79 -79 -17.5 -9999 -9999 -9999 -9999 -9999 -9999 -9999 -9999 -9999 -9999 -9999 -9999 -9999 -9999 -9999 -9999 -9999 -9999 -9999 -9999 -9999 -9999 -9999 -9999 -9999 -9999 -9999 -9999 -9999 -9999 -9999 -9999 -9999 -9999 -9999 -9999 -9999 -9999 -9999 -9999 -9999 -9999 -9999 -9999 -9999 -9999 -9999 -9999 -9999 -9999 -9999 -9999 -9999 -9999 -9999 -9999 -9999 -9999 -9999 -9999 -9999 -9999 -9999 -9999 -9999 -9999 -9999 -9999 -9999 -9999 -9999 -9999 -9999 -9999 -9999 -9999 -9999 -9999 -9999 -9999 -9999 -9999 -9999 -9999 -9999 -9999 -9999 -9999 -9999 -9999 -9999 -9999 -9999 -9999 -9999 -9999 -9999 -9999 -9999 -9999 -9999 -9999 -9999 -9999 -9999 -9999 -9999 -9999 -9999 -9999 -9999 -9999 -9999 -9999 -9999 -9999 -9999 -9999 -9999 -9999 -9999 -9999 -9999 -9999 -9999 -9999 -29 -42 -259.5 -895 -2100.5 -2336 -2499.5 -2754 -2999.5 -2954.5 -2952.5 -3018.5 -2766 -2716.5 -2795.5 -2768.5 -3023 -3078.5 -3065 -3123 -3257.5 -3244 -3147 -3110 -3106 -3090.5 -3086 -3095 -3066 -3058 -3169.5 -3135.5 -3000.5 -2992.5 -2987.5 -2893.5 -2946 -2946
-2679.75 -2606 -2589.75 -2468.5 -2368.75 -2155.25 -2106.75 -2115.5 -2092.75 -1934.5 -1777.5 -1425 -1176.5 -801.75 -653.25 -417 -355.5 -158.75 -125.5 -151.25 -216.5 -290 -284.25 -269.75 -265.5 -247.75 -244.75 -225.75 -216.5 -187.25 -187.5 -165 -155 -135.25 -123.5 -17.5 -17.5 -17 -9999 -9999 -9999 -9999 -9999 -9999 -9999 -9999 -9999 -9999 -9999 -9999 -9999 -9999 -9999 -9999 -9999 -9999 -9999 -9999 -9999 -9999 -9999 -9999 -9999 -9999 -9999 -9999 -9999 -9999 -9999 -9999 -9999 -9999 -9999 -9999 -9999 -9999 -9999 -9999 -9999 -9999 -9999 -9999 -9999 -9999 -9999 -9999 -9999 -9999 -9999 -9999 -9999 -9999 -9999 -9999 -9999 -9999 -9999 -9999 -9999 -9999 -9999 -9999 -9999 -9999 -9999 -9999 -9999 -9999 -9999 -9999 -9999 -9999 -9999 -9999 -9999 -9999 -9999 -9999 -9999 -9999 -9999 -9999 -9999 -9999 -9999 -9999 -9999 -9999 -9999 -9999 -9999 -9999 -9999 -9999 -9999 -9999 -9999 -9999 -9999 -9999 -9999 -9999 -9999 -9999 -9999 -9999 -9999 -9999 -9999 -9999 -9999 -9999 -9999 -9999 -9999 -9999 -9999 -9999 -9999 -9999 -9999 -9999 -9999 -29 -91.75 -1163.25 -1724.25 -2282.25 -2572.25 -2934.25 -2975.25 -3014 -2966 -2886.5 -2943.75 -2726.75 -2730.75 -2701.25 -2719 -2866.75 -2970.25 -3041.75 -3076.5 -3139.25 -3165.25 -3154 -3205.5 -3077.25 -3062.25 -3123 -3126 -3125 -3118.75 -3099.5 -3074.5 -3129.75 -3107.25 -3065.25 -3046.25 -3019.5 -3019.5
-2756 -2707.5 -2610.5 -2477.5 -2401 -2249 -2180 -2119.5 -2164 -1997.5 -1921.5 -1429.5 -1159 -919 -795 -590 -458.5 -353 -212.5 -183.5 -258.5 -316 -307 -279.5 -279 -258 -247.5 -233 -224.5 -197 -194 -180 -167.5 -137.5 -137 -29 -17 -17 -9999 -9999 -9999 -9999 -9999 -9999 -9999 -9999 -9999 -9999 -9999 -9999 -9999 -9999 -9999 -9999 -9999 -9999 -9999 -9999 -9999 -9999 -9999 -9999 -9999 -9999 -9999 -9999 -9999 -9999 -9999 -9999 -9999 -9999 -9999 -9999 -9999 -9999 -9999 -9999 -9999 -9999 -9999 -9999 -9999 -9999 -9999 -9999 -9999 -9999 -9999 -9999 -9999 -9999 -9999 -9999 -9999 -9999 -9999 -9999 -9999 -9999 -9999 -9999 -9999 -9999 -9999 -9999 -9999 -9999 -9999 -9999 -9999 -9999 -9999 -9999 -9999 -9999 -9999 -9999 -9999 -9999 -9999 -9999 -9999 -9999 -9999 -9999 -9999 -9999 -9999 -9999 -9999 -9999 -9999 -9999 -9999 -9999 -9999 -9999 -9999 -9999 -9999 -9999 -9999 -9999 -9999 -9999 -9999 -9999 -9999 -9999 -9999 -9999 -9999 -9999 -9999 -9999 -9999 -9999 -9999 -9999 -9999 -20 -49.3333333333333 -56 -657 -1859 -2188 -2727.5 -2801 -2980.5 -3012 -3019.5 -2977 -2893.5 -2928.5 -2726.5 -2714 -2703 -2671 -2762.5 -2865 -3067 -3110 -3074.5 -3093.5 -3207.5 -3180.5 -3117 -3265 -3144.5 -3128.5 -3056 -3072.5 -3159 -3114.5 -3112.5 -3142.5 -3137.5 -3150 -3060.5 -3060.5
-2778.25 -2680 -2593.75 -2493.5 -2449.5 -2342.75 -2317.5 -2250 -2241.25 -2066.5 -1851 -1420.25 -1298.5 -1063.75 -925 -616.25 -511.75 -431.25 -430 -267.25 -262 -294.5 -308.25 -309.25 -295.5 -269 -253.75 -236 -230 -209.25 -200 -189 -180.75 -159 -142.5 -83.5 -27.25 -27.25 -11 -9999 -9999 -9999 -9999 -9999 -9999 -9999 -9999 -9999 -9999 -9999 -9999 -9999 -9999 -9999 -9999 -9999 -9999 -9999 -9999 -9999 -9999 -9999 -9999 -9999 -9999 -9999 -9999 -9999 -9999 -9999 -9999 -9999 -9999 -9999 -9999 -9999 -9999 -9999 -9999 -9999 -9999 -9999 -9999 -9999 -9999 -9999 -9999 -9999 -9999 -9999 -9999 -9999 -9999 -9999 -9999 -9999 -9999 -9999 -9999 -9999 -9999 -9999 -9999 -9999 -9999 -9999 -9999 -9999 -9999 -9999 -9999 -9999 -9999 -9999 -9999 -9999 -9999 -9999 -9999 -9999 -9999 -9999 -9999 -9999 -9999 -9999 -9999 -9999 -9999 -9999 -9999 -9999 -9999 -9999 -9999 -9999 -9999 -9999 -9999 -9999 -9999 -9999 -9999 -9999 -9999 -9999 -9999 -9999 -9999 -9999 -9999 -9999 -9999 -9999 -9999 -9999 -9999 -9999 -9999 -9999 -9999 -20 -49.3333333333333 -930 -1496 -2254 -2511.75 -2880 -2894.25 -2949 -2991.5 -3050.75 -3022 -2873.75 -2943 -2802 -2741.25 -2766.5 -2688 -2811.25 -2835.75 -3073.25 -3071.25 -3051.75 -3053 -3119 -3099.75 -3187.5 -3211.5 -3111.5 -3133.25 -3147.75 -3109.25 -3014.75 -3030.75 -3200.25 -3198.25 -3202.5 -3203 -3100.5 -3100.5
-2792.5 -2714 -2668 -2616 -2566 -2482.5 -2469 -2356 -2286.5 -2061.5 -1875 -1557.5 -1425 -1165 -992.5 -731.5 -602.5 -442.5 -461 -439 -376.5 -386.5 -391.5 -339.5 -311 -282.5 -262.5 -233.5 -234.5 -221 -211.5 -195 -189 -172.5 -153.5 -130.5 -82.5 -11 -11 -27 -9999 -9999 -9999 -9999 -9999 -9999 -9999 -9999 -9999 -9999 -9999 -9999 -9999 -9999 -9999 -9999 -9999 -9999 -9999 -9999 -9999 -9999 -9999 -9999 -9999 -9999 -9999 -9999 -9999 -9999 -9999 -9999 -9999 -9999 -9999 -9999 -9999 -9999 -9999 -9999 -9999 -9999 -9999 -9999 -9999 -9999 -9999 -9999 -9999 -9999 -9999 -9999 -9999 -9999 -9999 -9999 -9999 -9999 -9999 -9999 -9999 -9999 -9999 -9999 -9999 -9999 -9999 -9999 -9999 -9999 -9999 -9999 -9999 -9999 -9999 -9999 -9999 -9999 -9999 -9999 -9999 -9999 -9999 -9999 -9999 -9999 -9999 -9999 -9999 -9999 -9999 -9999 -9999 -9999 -9999 -9999 -9999 -9999 -9999 -9999 -9999 -9999 -9999 -9999 -9999 -9999 -9999 -9999 -9999 -9999 -9999 -9999 -9999 -9999 -9999 -9999 -9999 -9999 -9999 -17 -35 -43 -414.5 -1826 -1969 -2616 -2787.5 -2928.5 -2888 -2930 -2909 -2981 -2969.5 -2883.5 -2906.5 -2872.5 -2816.5 -2824.5 -2746 -2690 -2775.5 -2961 -2997 -3107 -3106.5 -3144.5 -3151.5 -3096.5 -3070.5 -3202.5 -3228 -3117.5 -3157 -3100.5 -3066.5 -3262.5 -3248 -3246.5 -3217.5 -3151.5 -3151.5
-2883.5 -2801.75 -2751 -2710.25 -2663.25 -2578 -2537.75 -2423.25 -2370.5 -2071.75 -1898.75 -1625.75 -1470 -1123.5 -982.75 -799.5 -694.75 -520.25 -497 -503.5 -486.5 -414 -379 -331.25 -325.25 -302 -276 -250.75 -241.75 -230.25 -225.25 -211 -200.25 -178 -164 -136.5 -125.25 -60.3333333333333 -27 -27 -9999 -9999 -9999 -9999 -9999 -9999 -9999 -9999 -9999 -9999 -9999 -9999 -9999 -9999 -9999 -9999 -9999 -9999 -9999 -9999 -9999 -9999 -9999 -9999 -9999 -9999 -9999 -9999 -9999 -9999 -9999 -9999 -9999 -9999 -9999 -9999 -9999 -9999 -9999 -9999 -9999 -9999 -9999 -9999 -9999 -9999 -9999 -9999 -9999 -9999 -9999 -9999 -9999 -9999 -9999 -9999 -9999 -9999 -9999 -9999 -9999 -9999 -9999 -9999 -9999 -9999 -9999 -9999 -9999 -9999 -9999 -9999 -9999 -9999 -9999 -9999 -9999 -9999 -9999 -9999 -9999 -9999 -9999 -9999 -9999 -9999 -9999 -9999 -9999 -9999 -9999 -9999 -9999 -9999 -9999 -9999 -9999 -9999 -9999 -9999 -9999 -9999 -9999 -9999 -9999 -9999 -9999 -9999 -9999 -9999 -9999 -9999 -9999 -9999 -9999 -9999 -9999 -9999 -9999 -17 -35 -732 -1431.5 -1964 -2236.75 -2811.25 -2917.5 -2948.25 -2888.75 -2860.25 -2824.25 -2945 -2899 -2952.75 -2951.75 -3039.75 -3028.25 -2861.25 -2839 -2808.5 -2870.75 -2986 -3093.25 -3194 -3202 -3289 -3318.75 -3246.25 -3240.25 -3263.5 -3268.25 -3161.25 -3126.5 -3228.25 -3243.25 -3233.5 -3256.75 -3281.5 -3213.25 -3108.25 -3108.25
-3023 -2908.5 -2872.5 -2801.5 -2739.5 -2626.5 -2585 -2485 -2444.5 -2110.5 -1931.5 -1601.5 -1432 -1165 -1044.5 -849.5 -749.5 -615 -552.5 -536 -547.5 -451 -404.5 -346.5 -331.5 -314.5 -295 -284.5 -273.5 -253.5 -247 -229.5 -211.5 -182.5 -167 -136.5 -127.5 -97.5 -45.5 -45.5 -29 -29 -9999 -9999 -9999 -9999 -9999 -9999 -9999 -9999 -9999 -9999 -9999 -9999 -9999 -9999 -9999 -9999 -9999 -9999 -9999 -9999 -9999 -9999 -9999 -9999 -9999 -9999 -9999 -9999 -9999 -9999 -9999 -9999 -9999 -9999 -9999 -9999 -9999 -9999 -9999 -9999 -9999 -9999 -9999 -9999 -9999 -9999 -9999 -9999 -9999 -9999 -9999 -9999 -9999 -9999 -9999 -9999 -9999 -9999 -9999 -9999 -9999 -9999 -9999 -9999 -9999 -9999 -9999 -9999 -9999 -9999 -9999 -9999 -9999 -9999 -9999 -9999 -9999 -9999 -9999 -9999 -9999 -9999 -9999 -9999 -9999 -9999 -9999 -9999 -9999 -9999 -9999 -9999 -9999 -9999 -9999 -9999 -9999 -9999 -9999 -9999 -9999 -9999 -9999 -9999 -9999 -9999 -9999 -9999 -9999 -9999 -9999 -9999 -9999 -9999 -9999 -105.5 -113.666666666667 -57.5 -476.5 -1627 -1867.5 -2360.5 -2652 -2967.5 -2964.5 -2959.5 -2936 -2885 -2892.5 -2913 -2893 -3005 -2987.5 -3056.5 -3019.5 -2892 -2893.5 -2895 -3020.5 -3140 -3231.5 -3310.5 -3334 -3333.5 -3370.5 -3307 -3331.5 -3353 -3353.5 -3314.5 -3325.5 -3342 -3314.5 -3272.5 -3305 -3312.5 -3264 -3108 -3108
-3059.5 -2978.5 -2930.25 -2835.5 -2783.25 -2664 -2623.25 -2479.5 -2368.5 -2075.75 -1950 -1652.5 -1524 -1195.75 -1088.75 -819.5 -738.5 -621 -582.25 -574.25 -531.75 -483 -459.5 -396.5 -373.25 -317.25 -298.5 -288.75 -279.75 -269.75 -264.25 -241.75 -224.75 -179.25 -158 -135.5 -129.5 -119.25 -106.5 -39.3333333333333 -29 -29 -9999 -9999 -9999 -9999 -9999 -9999 -9999 -9999 -9999 -9999 -9999 -9999 -9999 -9999 -9999 -9999 -9999 -9999 -9999 -9999 -9999 -9999 -9999 -9999 -9999 -9999 -9999 -9999 -9999 -9999 -9999 -9999 -9999 -9999 -9999 -9999 -9999 -9999 -9999 -9999 -9999 -9999 -9999 -9999 -9999 -9999 -9999 -9999 -9999 -9999 -9999 -9999 -9999 -9999 -9999 -9999 -9999 -9999 -9999 -9999 -9999 -9999 -9999 -9999 -9999 -9999 -9999 -9999 -9999 -9999 -9999 -9999 -9999 -9999 -9999 -9999 -9999 -9999 -9999 -9999 -9999 -9999 -9999 -9999 -9999 -9999 -9999 -9999 -9999 -9999 -9999 -9999 -9999 -9999 -9999 -9999 -9999 -9999 -9999 -9999 -9999 -9999 -9999 -9999 -9999 -9999 -9999 -9999 -9999 -9999 -9999 -9999 -9999 -9999 -62 -105.5 -113.666666666667 -1077.75 -1675.75 -1978.5 -2202.25 -2689.25 -2906.25 -3118.75 -3119.25 -3015.25 -2953.75 -2917.5 -2928 -2935 -2944.75 -3087 -3053.75 -3115.75 -3144.25 -3061 -3132.75 -3076.75 -3198.75 -3325 -3334 -3362.5 -3356.25 -3365 -3373 -3376 -3390.75 -3394.75 -3377.75 -3365.75 -3316.5 -3347.75 -3324 -3299.75 -3340 -3324.5 -3279 -3194.25 -3194.25
-3067.5 -3030.5 -2993.5 -2873 -2845.5 -2735 -2631 -2390.5 -2274 -2028 -1883 -1626 -1486 -1211 -1156 -941 -820 -651 -589.5 -537 -492.5 -451.5 -450.5 -411 -398 -339 -307 -288 -284.5 -273.5 -264 -225.5 -205.5 -141.5 -138 -134.5 -132.5 -121 -116.5 -76.5 -31.5 -31.5 -26 -9999 -9999 -9999 -9999 -9999 -9999 -9999 -9999 -9999 -9999 -9999 -9999 -9999 -9999 -9999 -9999 -9999 -9999 -9999 -9999 -9999 -9999 -9999 -9999 -9999 -9999 -9999 -9999 -9999 -9999 -9999 -9999 -9999 -9999 -9999 -9999 -9999 -9999 -9999 -9999 -9999 -9999 -9999 -9999 -9999 -9999 -9999 -9999 -9999 -9999 -9999 -9999 -9999 -9999 -9999 -9999 -9999 -9999 -9999 -9999 -9999 -9999 -9999 -9999 -9999 -9999 -9999 -9999 -9999 -9999 -9999 -9999 -9999 -9999 -9999 -9999 -9999 -9999 -9999 -9999 -9999 -9999 -9999 -9999 -9999 -9999 -9999 -9999 -9999 -9999 -9999 -9999 -9999 -9999 -9999 -9999 -9999 -9999 -9999 -9999 -9999 -9999 -9999 -9999 -9999 -9999 -9999 -9999 -9999 -9999 -9999 -49 -242.666666666667 -62 -391 -1055.5 -1980.5 -2159 -2473.5 -2605 -2990 -3032.5 -3059.5 -3125 -3118.5 -3043.5 -2946 -3002.5 -3104.5 -3103.5 -3166 -3167 -3250 -3227.5 -3205.5 -3239 -3362 -3362.5 -3406 -3417 -3347 -3282.5 -3406 -3420.5 -3403.5 -3419 -3416 -3355.5 -3372 -3366.5 -3391 -3387 -3371 -3373 -3358 -3323 -3214 -3214
-3177.75 -3113.5 -3068.25 -2912.25 -2882 -2700.75 -2565 -2286.75 -2178 -1982.25 -1878.5 -1741.75 -1663.25 -1415.5 -1327.75 -1142.75 -1010.5 -754.5 -656 -540.5 -502 -456.75 -446 -393.75 -361 -330 -299.75 -286.75 -280.25 -272.75 -252 -199.25 -171.25 -140.5 -138.75 -134.5 -131.5 -125.25 -120.5 -107.5 -87.25 -26 -26 -7 -9999 -9999 -9999 -9999 -9999 -9999 -9999 -9999 -9999 -9999 -9999 -9999 -9999 -9999 -9999 -9999 -9999 -9999 -9999 -9999 -9999 -9999 -9999 -9999 -9999 -9999 -9999 -9999 -9999 -9999 -9999 -9999 -9999 -9999 -9999 -9999 -9999 -9999 -9999 -9999 -9999 -9999 -9999 -9999 -9999 -9999 -9999 -9999 -9999 -9999 -9999 -9999 -9999 -9999 -9999 -9999 -9999 -9999 -9999 -9999 -9999 -9999 -9999 -9999 -9999 -9999 -9999 -9999 -9999 -9999 -9999 -9999 -9999 -9999 -9999 -9999 -9999 -9999 -9999 -9999 -9999 -9999 -9999 -9999 -9999 -9999 -9999 -9999 -9999 -9999 -9999 -9999 -9999 -9999 -9999 -9999 -9999 -9999 -9999 -9999 -9999 -9999 -9999 -9999 -9999 -9999 -9999 -9999 -9999 -70 -49 -242.666666666667 -573 -1590.75 -1837.75 -2016.5 -2298 -2824.5 -2849.5 -3039.5 -3084 -2971.75 -3034.75 -3134 -3095.5 -3047.5 -3118.75 -3172 -3199.25 -3248 -3274.75 -3303 -3322 -3379 -3400.25 -3454.5 -3465.25 -3515.5 -3509.25 -3451 -3432.5 -3445.25 -3451 -3427.75 -3422 -3439.25 -3459.75 -3407.75 -3400.25 -3406 -3399.75 -3421.5 -3409 -3373.5 -3355.5 -3193 -3193
-3209.5 -3170.5 -3130.5 -2967.5 -2892 -2552.5 -2426.5 -2386.5 -2329 -2128 -2075 -1949 -1844.5 -1709.5 -1564 -1271.5 -1130 -892 -804 -611 -522 -463 -434 -420.5 -404 -320.5 -304 -292.5 -277 -261 -237.5 -189.5 -164.5 -136.5 -141.5 -133 -131.5 -125.5 -120.5 -110 -104.5 -28 -7 -7 -9999 -9999 -9999 -9999 -9999 -9999 -9999 -9999 -9999 -9999 -9999 -9999 -9999 -9999 -9999 -9999 -9999 -9999 -9999 -9999 -9999 -9999 -9999 -9999 -9999 -9999 -9999 -9999 -9999 -9999 -9999 -9999 -9999 -9999 -9999 -9999 -9999 -9999 -9999 -9999 -9999 -9999 -9999 -9999 -9999 -9999 -9999 -9999 -9999 -9999 -9999 -9999 -9999 -9999 -9999 -9999 -9999 -9999 -9999 -9999 -9999 -9999 -9999 -9999 -9999 -9999 -9999 -9999 -9999 -9999 -9999 -9999 -9999 -9999 -9999 -9999 -9999 -9999 -9999 -9999 -9999 -9999 -9999 -9999 -9999 -9999 -9999 -9999 -9999 -9999 -9999 -9999 -9999 -9999 -9999 -9999 -9999 -9999 -9999 -9999 -9999 -9999 -9999 -9999 -9999 -9999 -9999 -9999 -67 -70 -103 -991.5 -1364 -2000 -2265.5 -2398 -2555 -2813.5 -2686.5 -2982.5 -2954.5 -2995.5 -3054 -3161.5 -3199 -3135 -3172 -3207.5 -3237 -3323 -3356.5 -3391 -3410 -3463 -3516.5 -3501.5 -3508 -3495.5 -3486.5 -3443 -3467 -3475 -3497 -3461 -3437 -3448.5 -3421.5 -3445.5 -3447.5 -3452 -3451 -3444 -3440.5 -3405.5 -3410 -3098.5 -3098.5
-3291.25 -3200 -3165.25 -2992.5 -2832.25 -2590.75 -2522.5 -2510 -2436.75 -2255 -2271.5 -2194 -2153.75 -1967 -1814.75 -1442.5 -1283.25 -1041.75 -952 -655 -585.75 -492.25 -436.75 -394.25 -382.25 -336 -362.75 -320 -298.25 -263.25 -246.25 -193.5 -173.5 -153.5 -147.5 -140.75 -138.5 -129 -123 -114 -106.5 -45 -18.5 -18.5 -9999 -9999 -9999 -9999 -9999 -9999 -9999 -9999 -9999 -9999 -9999 -9999 -9999 -9999 -9999 -9999 -9999 -9999 -9999 -9999 -9999 -9999 -9999 -9999 -9999 -9999 -9999 -9999 -9999 -9999 -9999 -9999 -9999 -9999 -9999 -9999 -9999 -9999 -9999 -9999 -9999 -9999 -9999 -9999 -9999 -9999 -9999 -9999 -9999 -9999 -9999 -9999 -9999 -9999 -9999 -9999 -9999 -9999 -9999 -9999 -9999 -9999 -9999 -9999 -9999 -9999 -9999 -9999 -9999 -9999 -9999 -9999 -9999 -9999 -9999 -9999 -9999 -9999 -9999 -9999 -9999 -9999 -9999 -9999 -9999 -9999 -9999 -9999 -9999 -9999 -9999 -9999 -9999 -9999 -9999 -9999 -9999 -9999 -9999 -9999 -9999 -9999 -9999 -9999 -9999 -9999 -9999 -38 -67 -105.25 -381.5 -1428.75 -1868.75 -2395.25 -2507.5 -2762.75 -2820.25 -2890.75 -2901 -2885.25 -2934.25 -3028.25 -2993.25 -3157 -3211 -3248 -3375.25 -3412.75 -3408.5 -3489.75 -3472 -3505.5 -3536.5 -3535.75 -3534.75 -3582.25 -3557 -3541.5 -3534.75 -3514 -3530.25 -3479 -3474 -3482.5 -3504.25 -3579 -3527.5 -3493.5 -3472 -3458.5 -3459 -3458.75 -3477 -3441.5 -3171 -2750.25 -2750.25
-3323.5 -3248.5 -3213 -2989 -2814.5 -2667 -2658.5 -2640.5 -2569 -2488.5 -2470 -2393.5 -2330.5 -2138 -1992 -1635.5 -1458.5 -1163.5 -1053 -838.5 -772.5 -542.5 -474 -411 -394.5 -377 -384.5 -316.5 -289 -255 -241.5 -210.5 -189 -164 -154.5 -148 -141.5 -131.5 -128 -116 -112 -68 -32 -32 -9999 -9999 -9999 -9999 -9999 -9999 -9999 -9999 -9999 -9999 -9999 -9999 -9999 -9999 -9999 -9999 -9999 -9999 -9999 -9999 -9999 -9999 -9999 -9999 -9999 -9999 -9999 -9999 -9999 -9999 -9999 -9999 -9999 -9999 -9999 -9999 -9999 -9999 -9999 -9999 -9999 -9999 -9999 -9999 -9999 -9999 -9999 -9999 -9999 -9999 -9999 -9999 -9999 -9999 -9999 -9999 -9999 -9999 -9999 -9999 -9999 -9999 -9999 -9999 -9999 -9999 -9999 -9999 -9999 -9999 -9999 -9999 -9999 -9999 -9999 -9999 -9999 -9999 -9999 -9999 -9999 -9999 -9999 -9999 -9999 -9999 -9999 -9999 -9999 -9999 -9999 -9999 -9999 -9999 -9999 -9999 -9999 -9999 -9999 -9999 -9999 -9999 -9999 -9999 -9999 -9999 -30 -38 -67 -322 -768 -1512.5 -1827.5 -2511 -2690 -2884.5 -2937.5 -2929 -2910 -2850 -2873.5 -3005 -3119 -3345.5 -3448 -3399 -3491 -3533 -3586.5 -3587.5 -3541.5 -3578.5 -3566.5 -3572 -3566.5 -3542 -3550 -3553 -3550 -3532 -3516.5 -3502 -3473 -3462 -3511.5 -3537 -3524.5 -3486.5 -3477 -3436.5 -3436 -3394 -3392.5 -3326 -2959 -2775.5 -2775.5
-3384.75 -3282 -3189.5 -3021.75 -2920.25 -2823.25 -2827.5 -2769.5 -2719.25 -2688.25 -2671.25 -2559.75 -2492 -2271 -2156.75 -1882.25 -1695.25 -1312.25 -1195.5 -973.25 -850 -668.75 -539.25 -422.25 -391.5 -369.75 -366.75 -301.75 -290 -264.25 -245.75 -217.5 -201.5 -169.5 -163 -156.5 -152.75 -137.5 -129.25 -115.75 -111.5 -90.5 -47 -47 -9999 -9999 -9999 -9999 -9999 -9999 -9999 -9999 -9999 -9999 -9999 -9999 -9999 -9999 -9999 -9999 -9999 -9999 -9999 -9999 -9999 -9999 -9999 -9999 -9999 -9999 -9999 -9999 -9999 -9999 -9999 -9999 -9999 -9999 -9999 -9999 -9999 -9999 -9999 -9999 -9999 -9999 -9999 -9999 -9999 -9999 -9999 -9999 -9999 -9999 -9999 -9999 -9999 -9999 -9999 -9999 -9999 -9999 -9999 -9999 -9999 -9999 -9999 -9999 -9999 -9999 -9999 -9999 -9999 -9999 -9999 -9999 -9999 -9999 -9999 -9999 -9999 -9999 -9999 -9999 -9999 -9999 -9999 -9999 -9999 -9999 -9999 -9999 -9999 -9999 -9999 -9999 -9999 -9999 -9999 -9999 -9999 -9999 -9999 -9999 -9999 -9999 -9999 -9999 -9999 -34 -30 -133.5 -292.5 -910.75 -1305.75 -1887 -2147.75 -2573.5 -2745.75 -2871.75 -2944.5 -2973.5 -2871 -2950.75 -2974 -3242 -3373.25 -3481.25 -3449 -3377.25 -3426.75 -3506.75 -3529.5 -3522 -3564 -3574 -3606.75 -3587 -3580.75 -3567.75 -3561.75 -3556 -3547.5 -3519.75 -3507.75 -3506.5 -3457.75 -3523.75 -3545.25 -3512.5 -3505.5 -3490 -3487.25 -3446.5 -3465.25 -3381 -3340.5 -3247 -3046.75 -2997 -2997
-3406 -3307 -3172 -3072 -3031.5 -2948.5 -2943.5 -2892 -2854 -2813.5 -2809.5 -2757.5 -2613 -2471.5 -2430 -2056 -1848 -1502 -1353 -1120.5 -1010.5 -795.5 -648 -434.5 -373.5 -344.5 -310 -320.5 -329.5 -237.5 -254 -230.5 -212.5 -185.5 -174.5 -163 -160.5 -148.5 -138 -120.5 -113.5 -90 -46 -46 -9999 -9999 -9999 -9999 -9999 -9999 -9999 -9999 -9999 -9999 -9999 -9999 -9999 -9999 -9999 -9999 -9999 -9999 -9999 -9999 -9999 -9999 -9999 -9999 -9999 -9999 -9999 -9999 -9999 -9999 -9999 -9999 -9999 -9999 -9999 -9999 -9999 -9999 -9999 -9999 -9999 -9999 -9999 -9999 -9999 -9999 -9999 -9999 -9999 -9999 -9999 -9999 -9999 -9999 -9999 -9999 -9999 -9999 -9999 -9999 -9999 -9999 -9999 -9999 -9999 -9999 -9999 -9999 -9999 -9999 -9999 -9999 -9999 -9999 -9999 -9999 -9999 -9999 -9999 -9999 -9999 -9999 -9999 -9999 -9999 -9999 -9999 -9999 -9999 -9999 -9999 -9999 -9999 -9999 -9999 -9999 -9999 -9999 -9999 -9999 -9999 -9999 -9999 -9999 -26 -34 -69.5 -304 -720 -1578 -1921 -2222.5 -2417 -2821 -2948 -2894.5 -3056 -3136 -3049 -3194.5 -3288 -3394 -3420 -3488.5 -3408.5 -3460 -3464 -3443.5 -3471.5 -3667.5 -3659 -3618 -3668 -3615.5 -3591.5 -3578 -3593 -3611.5 -3583 -3560.5 -3553 -3539 -3551 -3546.5 -3528 -3513 -3513 -3491.5 -3510.5 -3497 -3493 -3415 -3393.5 -3137 -2953.5 -3008 -3008
-3487.25 -3330.25 -3263 -3207.75 -3183.75 -3111.5 -3086.75 -3006.75 -2965.5 -2974 -2932 -2887.5 -2854.75 -2680.75 -2562.75 -2204.75 -1998.5 -1652.75 -1531.25 -1293.5 -1175.25 -929 -773 -558 -467.25 -366.25 -337.5 -341.5 -335 -288 -281.25 -249.25 -228.25 -203 -189.75 -170 -169.75 -156.5 -141.75 -115 -104.75 -75.5 -48.25 -48.25 -9999 -9999 -9999 -9999 -9999 -9999 -9999 -9999 -9999 -9999 -9999 -9999 -9999 -9999 -9999 -9999 -9999 -9999 -9999 -9999 -9999 -9999 -9999 -9999 -9999 -9999 -9999 -9999 -9999 -9999 -9999 -9999 -9999 -9999 -9999 -9999 -9999 -9999 -9999 -9999 -9999 -9999 -9999 -9999 -9999 -9999 -9999 -9999 -9999 -9999 -9999 -9999 -9999 -9999 -9999 -9999 -9999 -9999 -9999 -9999 -9999 -9999 -9999 -9999 -9999 -9999 -9999 -9999 -9999 -9999 -9999 -9999 -9999 -9999 -9999 -9999 -9999 -9999 -9999 -9999 -9999 -9999 -9999 -9999 -9999 -9999 -9999 -9999 -9999 -9999 -9999 -9999 -9999 -9999 -9999 -9999 -9999 -9999 -9999 -9999 -9999 -9999 -9999 -64 -26 -84.5 -204.5 -857.5 -1311.5 -1913.75 -2177.75 -2583 -2713.5 -2943.75 -3073 -3057.75 -3099.75 -3194 -3183.75 -3303.75 -3386 -3294.5 -3337.25 -3481.75 -3469.5 -3555 -3538.75 -3535.75 -3502.25 -3589 -3613.75 -3609.5 -3617.5 -3595.25 -3633.25 -3601.25 -3589.25 -3592 -3591 -3586.25 -3601.75 -3569.5 -3559 -3541.25 -3533.5 -3512.5 -3513.75 -3520.25 -3522.5 -3506.75 -3506.5 -3433 -3364.5 -3120.75 -3051.25 -3134.25 -3134.25
-3558.5 -3443.5 -3401 -3353 -3290 -3202.5 -3160 -3077.5 -3045 -3034.5 -3004 -2939.5 -2913.5 -2771.5 -2659 -2304 -2095.5 -1789.5 -1687 -1487.5 -1364 -1108 -965.5 -697 -571.5 -384 -361 -367 -377.5 -304.5 -283 -268 -252.5 -221.5 -206 -176.5 -171.5 -157 -141 -100.5 -93 -69 -50.5 -50.5 -9999 -9999 -9999 -9999 -9999 -9999 -9999 -9999 -9999 -9999 -9999 -9999 -9999 -9999 -9999 -9999 -9999 -9999 -9999 -9999 -9999 -9999 -9999 -9999 -9999 -9999 -9999 -9999 -9999 -9999 -9999 -9999 -9999 -9999 -9999 -9999 -9999 -9999 -9999 -9999 -9999 -9999 -9999 -9999 -9999 -9999 -9999 -9999 -9999 -9999 -9999 -9999 -9999 -9999 -9999 -9999 -9999 -9999 -9999 -9999 -9999 -9999 -9999 -9999 -9999 -9999 -9999 -9999 -9999 -9999 -9999 -9999 -9999 -9999 -9999 -9999 -9999 -9999 -9999 -9999 -9999 -9999 -9999 -9999 -9999 -9999 -9999 -9999 -9999 -9999 -9999 -9999 -9999 -9999 -9999 -9999 -9999 -9999 -9999 -9999 -9999 -7 -35 -64 -87 -286.5 -641 -1479.5 -1844 -2256 -2425.5 -2777 -2888.5 -3013 -3100.5 -3225 -3259.5 -3219.5 -3201 -3295 -3390.5 -3447.5 -3522 -3465 -3466 -3573.5 -3639 -3580.5 -3563.5 -3638 -3637 -3638.5 -3651 -3607 -3587 -3579.5 -3625 -3588.5 -3583.5 -3595 -3577 -3570 -3566.5 -3558.5 -3534.5 -3532.5 -3533.5 -3533 -3540 -3575 -3548 -3463 -3373.5 -3087.5 -3037.5 -2982.5 -2982.5
-3599 -3575.75 -3542.25 -3441.5 -3392 -3313.75 -3265 -3186 -3174.5 -3140.5 -3095.25 -3048.5 -2985.25 -2816 -2660.25 -2344 -2209.75 -1990.25 -1916.5 -1735 -1633.75 -1313.75 -1169 -855.75 -710.75 -425 -375.25 -348.75 -346 -317 -291 -274 -271.75 -244.75 -224.5 -192 -184.75 -148 -108 -79.5 -72 -50.75 -35.75 -35.75 -9999 -9999 -9999 -9999 -9999 -9999 -9999 -9999 -9999 -9999 -9999 -9999 -9999 -9999 -9999 -9999 -9999 -9999 -9999 -9999 -9999 -9999 -9999 -9999 -9999 -9999 -9999 -9999 -9999 -9999 -9999 -9999 -9999 -9999 -9999 -9999 -9999 -9999 -9999 -9999 -9999 -9999 -9999 -9999 -9999 -9999 -9999 -9999 -9999 -9999 -9999 -9999 -9999 -9999 -9999 -9999 -9999 -9999 -9999 -9999 -9999 -9999 -9999 -9999 -9999 -9999 -9999 -9999 -9999 -9999 -9999 -9999 -9999 -9999 -9999 -9999 -9999 -9999 -9999 -9999 -9999 -9999 -9999 -9999 -9999 -9999 -9999 -9999 -9999 -9999 -9999 -9999 -9999 -9999 -9999 -9999 -9999 -9999 -9999 -9999 -9999 -7 -35 -90.25 -191.75 -790 -1124.25 -1977 -2191.25 -2589.25 -2752.25 -2934 -2950.5 -3007.75 -3095.75 -3317 -3327.75 -3340 -3336.75 -3348.25 -3423.75 -3492.75 -3472.75 -3590.25 -3553.75 -3619 -3653.25 -3614.5 -3627.5 -3649.75 -3656 -3637.75 -3643 -3610 -3607.75 -3604 -3618.25 -3610 -3597.5 -3584.25 -3592.75 -3567 -3549.75 -3562 -3566.75 -3548 -3549 -3573.25 -3568.5 -3537.5 -3493.25 -3360.25 -3237.75 -3038.5 -3034.5 -2943.75 -2943.75
-3697.5 -3624.5 -3596.5 -3557 -3516.5 -3416 -3370.5 -3284.5 -3262.5 -3221 -3194 -3129 -3109 -2909.5 -2747.5 -2436 -2349.5 -2251 -2133 -2002 -1898.5 -1602.5 -1472.5 -1103.5 -888.5 -491 -404.5 -351.5 -326.5 -311.5 -299 -288.5 -276 -262.5 -248.5 -222.5 -217.5 -116 -70 -50.5 -49 -26.5 -18.5 -18.5 -9999 -9999 -9999 -9999 -9999 -9999 -9999 -9999 -9999 -9999 -9999 -9999 -9999 -9999 -9999 -9999 -9999 -9999 -9999 -9999 -9999 -9999 -9999 -9999 -9999 -9999 -9999 -9999 -9999 -9999 -9999 -9999 -9999 -9999 -9999 -9999 -9999 -9999 -9999 -9999 -9999 -9999 -9999 -9999 -9999 -9999 -9999 -9999 -9999 -9999 -9999 -9999 -9999 -9999 -9999 -9999 -9999 -9999 -9999 -9999 -9999 -9999 -9999 -9999 -9999 -9999 -9999 -9999 -9999 -9999 -9999 -9999 -9999 -9999 -9999 -9999 -9999 -9999 -9999 -9999 -9999 -9999 -9999 -9999 -9999 -9999 -9999 -9999 -9999 -9999 -9999 -9999 -9999 -9999 -9999 -9999 -9999 -9999 -9999 -44 -51.6666666666667 -76 -83 -237.5 -590.5 -1478.5 -1832.5 -2272 -2512 -2809.5 -2929.5 -3116.5 -3092 -3166 -3208.5 -3321.5 -3390.5 -3489.5 -3437 -3461.5 -3508 -3561.5 -3571.5 -3677.5 -3591 -3648 -3646 -3659 -3662.5 -3661.5 -3644.5 -3636.5 -3641.5 -3625 -3620.5 -3624.5 -3620 -3602 -3597 -3579.5 -3582.5 -3568 -3557 -3530 -3557 -3583.5 -3588 -3596.5 -3579 -3509.5 -3471 -3275 -3105 -3066 -3102 -2901.5 -2901.5
-3734.75 -3663.75 -3671.75 -3629.5 -3578.75 -3467.5 -3403.25 -3359.75 -3344.5 -3288.25 -3254.5 -3226.75 -3203 -3016.75 -2869 -2651.25 -2561.75 -2489 -2385 -2296.75 -2210 -1974.5 -1843.5 -1429.25 -1178 -659 -504 -401.5 -373 -330.75 -323 -299.25 -285.25 -260.25 -248.25 -245.25 -209.25 -85.5 -46.25 -30 -27.75 -15.6666666666667 -14 -14 -9999 -9999 -9999 -9999 -9999 -9999 -9999 -9999 -9999 -9999 -9999 -9999 -9999 -9999 -9999 -9999 -9999 -9999 -9999 -9999 -9999 -9999 -9999 -9999 -9999 -9999 -9999 -9999 -9999 -9999 -9999 -9999 -9999 -9999 -9999 -9999 -9999 -9999 -9999 -9999 -9999 -9999 -9999 -9999 -9999 -9999 -9999 -9999 -9999 -9999 -9999 -9999 -9999 -9999 -9999 -9999 -9999 -9999 -9999 -9999 -9999 -9999 -9999 -9999 -9999 -9999 -9999 -9999 -9999 -9999 -9999 -9999 -9999 -9999 -9999 -9999 -9999 -9999 -9999 -9999 -9999 -9999 -9999 -9999 -9999 -9999 -9999 -9999 -9999 -9999 -9999 -9999 -9999 -9999 -9999 -9999 -9999 -9999 -34 -44 -51.6666666666667 -97 -193.25 -793.75 -1047.5 -1944.25 -2199.25 -2635.75 -2754.25 -2960.5 -3037.75 -3191.5 -3236.75 -3258.5 -3318 -3368 -3385.25 -3478 -3491.25 -3546.75 -3556.75 -3573.5 -3607 -3660.25 -3652 -3684.5 -3688.5 -3705 -3687.25 -3637.75 -3605.25 -3645 -3671.25 -3664 -3645.25 -3658.5 -3628.75 -3600.25 -3598.75 -3621.25 -3597.5 -3574.25 -3568 -3529.25 -3528 -3553 -3560.75 -3544.25 -3543.5 -3448.75 -3348.5 -3174 -3053 -3011.25 -3057 -2858.25 -2858.25
-3804 -3862.5 -3788.5 -3674.5 -3643.5 -3530.5 -3473.5 -3458.5 -3425 -3368.5 -3350 -3333.5 -3297 -3109.5 -3000 -2867 -2826.5 -2675.5 -2636.5 -2549 -2476 -2255.5 -2085 -1701.5 -1456.5 -917 -707.5 -447.5 -405.5 -334.5 -317.5 -309.5 -301 -281.5 -266 -274 -196.5 -79 -31 -31 -4 -4 -9999 -9999 -9999 -9999 -9999 -9999 -9999 -9999 -9999 -9999 -9999 -9999 -9999 -9999 -9999 -9999 -9999 -9999 -9999 -9999 -9999 -9999 -9999 -9999 -9999 -9999 -9999 -9999 -9999 -9999 -9999 -9999 -9999 -9999 -9999 -9999 -9999 -9999 -9999 -9999 -9999 -9999 -9999 -9999 -9999 -9999 -9999 -9999 -9999 -9999 -9999 -9999 -9999 -9999 -9999 -9999 -9999 -9999 -9999 -9999 -9999 -9999 -9999 -9999 -9999 -9999 -9999 -9999 -9999 -9999 -9999 -9999 -9999 -9999 -9999 -9999 -9999 -9999 -9999 -9999 -9999 -9999 -9999 -9999 -9999 -9999 -9999 -9999 -9999 -9999 -9999 -9999 -9999 -9999 -9999 -9999 -9999 -9999 -9999 -67 -34 -55.5 -76.5 -329.5 -678.5 -1493 -1886.5 -2278.5 -2480 -2825.5 -2904.5 -3140 -3204 -3361 -3390 -3424 -3449 -3502 -3503 -3508.5 -3538 -3555.5 -3585.5 -3649.5 -3662.5 -3629.5 -3652 -3708 -3730.5 -3702.5 -3670.5 -3655.5 -3630.5 -3641 -3660 -3661.5 -3661.5 -3632 -3621.5 -3622 -3607 -3594.5 -3560.5 -3560 -3560.5 -3401 -3382.5 -3497 -3490 -3487.5 -3478 -3311 -3186.5 -2979 -3022 -3043.5 -3089.5 -2696.5 -2696.5
-3844.5 -3871.75 -3837.75 -3722 -3704.25 -3621.5 -3590 -3561.75 -3523.5 -3466.25 -3449.5 -3412.5 -3363.75 -3253.75 -3178.5 -3045.75 -2985.25 -2855.5 -2797.25 -2646 -2557.75 -2368.75 -2235.25 -1849.5 -1657.25 -1185.25 -905.5 -521.75 -453.5 -375 -345.25 -303.75 -317 -291.5 -281.5 -242.75 -188.75 -73.75 -39 -39 -9999 -9999 -9999 -9999 -9999 -9999 -9999 -9999 -9999 -9999 -9999 -9999 -9999 -9999 -9999 -9999 -9999 -9999 -9999 -9999 -9999 -9999 -9999 -9999 -9999 -9999 -9999 -9999 -9999 -9999 -9999 -9999 -9999 -9999 -9999 -9999 -9999 -9999 -9999 -9999 -9999 -9999 -9999 -9999 -9999 -9999 -9999 -9999 -9999 -9999 -9999 -9999 -9999 -9999 -9999 -9999 -9999 -9999 -9999 -9999 -9999 -9999 -9999 -9999 -9999 -9999 -9999 -9999 -9999 -9999 -9999 -9999 -9999 -9999 -9999 -9999 -9999 -9999 -9999 -9999 -9999 -9999 -9999 -9999 -9999 -9999 -9999 -9999 -9999 -9999 -9999 -9999 -9999 -9999 -9999 -9999 -9999 -9999 -9999 -34 -62 -67 -86 -130.25 -271.5 -1102 -1712.75 -2026 -2263.5 -2602.25 -2738.25 -2968.75 -3035 -3180.75 -3317.5 -3493.5 -3490.25 -3535.25 -3500.25 -3516.75 -3535.75 -3573.25 -3610.5 -3619 -3642.5 -3665.25 -3686 -3706.75 -3722.5 -3737 -3751.5 -3703.75 -3698.5 -3688.5 -3676.5 -3661.75 -3675.75 -3686.75 -3669 -3641.25 -3634.25 -3604.5 -3565.75 -3566.5 -3507.25 -3532.5 -3505.5 -3459.75 -3378.25 -3399.5 -3446.75 -3387.25 -3358 -3205.75 -3128.5 -3023.25 -3080.75 -3059 -3061.25 -2574.25 -2574.25
-3937.5 -3919 -3903 -3840.5 -3785 -3686 -3652.5 -3633 -3595.5 -3497 -3489.5 -3516.5 -3445 -3370.5 -3349 -3248 -3162 -2998 -2918.5 -2710 -2620.5 -2435 -2293.5 -1983.5 -1852.5 -1394.5 -1103 -611 -500 -421 -385.5 -350.5 -343 -329 -327.5 -299 -215 -97 -24 -24 -3 -3 -9999 -9999 -9999 -9999 -9999 -9999 -9999 -9999 -9999 -9999 -9999 -9999 -9999 -9999 -9999 -9999 -9999 -9999 -9999 -9999 -9999 -9999 -9999 -9999 -9999 -9999 -9999 -9999 -9999 -9999 -9999 -9999 -9999 -9999 -9999 -9999 -9999 -9999 -9999 -9999 -9999 -9999 -9999 -9999 -9999 -9999 -9999 -9999 -9999 -9999 -9999 -9999 -9999 -9999 -9999 -9999 -9999 -9999 -9999 -9999 -9999 -9999 -9999 -9999 -9999 -9999 -9999 -9999 -9999 -9999 -9999 -9999 -9999 -9999 -9999 -9999 -9999 -9999 -9999 -9999 -9999 -9999 -9999 -9999 -9999 -9999 -9999 -9999 -9999 -9999 -9999 -9999 -9999 -9999 -9999 -24 -50.5 -34 -62 -95 -105.5 -436 -757.5 -1606 -2024 -2397.5 -2670 -2914.5 -2970.5 -3116.5 -3195.5 -3297 -3425.5 -3564.5 -3543.5 -3509 -3529.5 -3577.5 -3595.5 -3657 -3669 -3660 -3678 -3701 -3699.5 -3751.5 -3766 -3742.5 -3752 -3744.5 -3749 -3723.5 -3714.5 -3702 -3705 -3682.5 -3671.5 -3636.5 -3615 -3548 -3502 -3507 -3535.5 -3673 -3538.5 -3435.5 -3431 -3425 -3407 -3465.5 -3631 -3659.5 -3516.5 -3327 -3266 -3163.5 -3034.5 -2441 -2441
-4017.75 -3966.5 -3952 -3863.5 -3833.25 -3795.25 -3771.75 -3721 -3692.5 -3609.5 -3574.75 -3537.25 -3523.75 -3482.25 -3462.75 -3328.75 -3266 -3112.25 -3010.75 -2758 -2611.75 -2366.25 -2310.5 -2165.5 -2036 -1474.25 -1201.5 -751.25 -588.75 -466 -453.75 -403 -373.5 -375.75 -362.25 -300 -222.5 -122.75 -68 -5.66666666666667 -3 -3 -9999 -9999 -9999 -9999 -9999 -9999 -9999 -9999 -9999 -9999 -9999 -9999 -9999 -9999 -9999 -9999 -9999 -9999 -9999 -9999 -9999 -9999 -9999 -9999 -9999 -9999 -9999 -9999 -9999 -9999 -9999 -9999 -9999 -9999 -9999 -9999 -9999 -9999 -9999 -9999 -9999 -9999 -9999 -9999 -9999 -9999 -9999 -9999 -9999 -9999 -9999 -9999 -9999 -9999 -9999 -9999 -9999 -9999 -9999 -9999 -9999 -9999 -9999 -9999 -9999 -9999 -9999 -9999 -9999 -9999 -9999 -9999 -9999 -9999 -9999 -9999 -9999 -9999 -9999 -9999 -9999 -9999 -9999 -9999 -9999 -9999 -9999 -9999 -9999 -9999 -9999 -9999 -9999 -9999 -8 -24 -50.5 -74 -86.5 -180 -466.75 -1179.5 -1399 -1754.75 -2088.25 -2573.5 -2778.5 -3102.75 -3173 -3107.5 -3189.25 -3399.5 -3494 -3478.5 -3514.5 -3545.75 -3575.5 -3579.75 -3603.25 -3689.5 -3697.25 -3700 -3709.25 -3727.75 -3763.75 -3789.75 -3786.25 -3774.25 -3768.5 -3769 -3767.5 -3750.5 -3751 -3741.75 -3725.5 -3704.5 -3689 -3627.75 -3610 -3590.75 -3574.75 -3635.25 -3621.75 -3560.5 -3479.5 -3495 -3450.75 -3325.25 -3429.75 -3916 -3921 -3481.5 -3242.5 -2892.75 -3043.75 -3134.25 -2838.5 -2289.75 -2289.75
-4100.5 -3952 -3985.5 -3920 -3886.5 -3840.5 -3839.5 -3787.5 -3757.5 -3684 -3671 -3623 -3605.5 -3552.5 -3493 -3418 -3373 -3184 -3073 -2751.5 -2664.5 -2610 -2499 -2277.5 -2143.5 -1553 -1288 -846.5 -717.5 -527 -472.5 -453.5 -423.5 -409 -425.5 -299.5 -228 -151.5 -112 -35.5 -4.5 -4.5 -9999 -9999 -9999 -9999 -9999 -9999 -9999 -9999 -9999 -9999 -9999 -9999 -9999 -9999 -9999 -9999 -9999 -9999 -9999 -9999 -9999 -9999 -9999 -9999 -9999 -9999 -9999 -9999 -9999 -9999 -9999 -9999 -9999 -9999 -9999 -9999 -9999 -9999 -9999 -9999 -9999 -9999 -9999 -9999 -9999 -9999 -9999 -9999 -9999 -9999 -9999 -9999 -9999 -9999 -9999 -9999 -9999 -9999 -9999 -9999 -9999 -9999 -9999 -9999 -9999 -9999 -9999 -9999 -9999 -9999 -9999 -9999 -9999 -9999 -9999 -9999 -9999 -9999 -9999 -9999 -9999 -9999 -9999 -9999 -9999 -9999 -9999 -9999 -9999 -9999 -9999 -9999 -5 -66 -8 -65.5 -81.5 -91 -142.5 -793 -1354.5 -2150.5 -2381.5 -2403 -2593 -2837.5 -2952.5 -3184 -3322 -3302.5 -3330 -3381 -3397.5 -3550.5 -3599.5 -3593 -3614 -3658.5 -3641.5 -3757 -3769.5 -3703.5 -3739.5 -3763.5 -3771 -3839 -3855.5 -3821 -3796.5 -3805 -3797 -3814 -3801 -3752.5 -3739.5 -3711.5 -3707 -3663 -3659.5 -3624.5 -3635.5 -3588 -3590 -3480 -3436 -3413 -3297 -3468 -3806 -3704.5 -3173 -2695.5 -2547.5 -2234.5 -2306.5 -2949.5 -2829 -2289.5 -2289.5
-4054.75 -4080.5 -4081.75 -3996 -3999.75 -3946 -3931.5 -3861.25 -3817.5 -3724.5 -3710 -3698.5 -3690.5 -3617.25 -3562.25 -3514.5 -3457.25 -3267.5 -3155 -2963.75 -2852.5 -2669 -2507.5 -2184.5 -2021.5 -1647.75 -1396.25 -1021 -869.5 -660 -601.25 -510.25 -475.5 -514.5 -517.75 -332.25 -227.75 -167 -139.5 -85.25 -55 -55 -12 -9999 -9999 -9999 -9999 -9999 -9999 -9999 -9999 -9999 -9999 -9999 -9999 -9999 -9999 -9999 -9999 -9999 -9999 -9999 -9999 -9999 -9999 -9999 -9999 -9999 -9999 -9999 -9999 -9999 -9999 -9999 -9999 -9999 -9999 -9999 -9999 -9999 -9999 -9999 -9999 -9999 -9999 -9999 -9999 -9999 -9999 -9999 -9999 -9999 -9999 -9999 -9999 -9999 -9999 -9999 -9999 -9999 -9999 -9999 -9999 -9999 -9999 -9999 -9999 -9999 -9999 -9999 -9999 -9999 -9999 -9999 -9999 -9999 -9999 -9999 -9999 -9999 -9999 -9999 -9999 -9999 -9999 -9999 -9999 -9999 -9999 -9999 -9999 -9999 -9999 -38 -5 -66 -70.5 -107 -170.5 -345.5 -675.75 -1724 -1884.5 -2232.75 -2492.25 -2922.75 -2926.25 -3099.75 -3129.5 -3188.5 -3251 -3375.25 -3430.5 -3478.25 -3456 -3611 -3623.25 -3644.25 -3670.25 -3668.25 -3664.5 -3846.25 -3813 -3744 -3786.25 -3789.25 -3821 -3882.75 -3860.5 -3850.75 -3850.25 -3856.75 -3855 -3822.25 -3803 -3796.5 -3765.5 -3736 -3720 -3679.5 -3667 -3671.5 -3698 -3659.25 -3621 -3545.5 -3575.25 -3457.25 -3405.25 -3553 -3522.25 -2915 -2622 -2534.5 -2523.75 -2462 -2347.75 -2451.5 -2663.5 -2312.75 -2312.75
-4166 -4143 -4126.5 -4117 -4070.5 -4012 -3993.5 -3943.5 -3913.5 -3855.5 -3842 -3784.5 -3767.5 -3634 -3574 -3537.5 -3463 -3317 -3241 -3096.5 -2992.5 -2728 -2606.5 -2492 -2328 -1835.5 -1563 -1197 -1045.5 -785.5 -697 -577 -531 -532 -562.5 -336 -231 -177 -159 -74.5 -46.5 -12 -12 -38.3333333333333 -9999 -9999 -9999 -9999 -9999 -9999 -9999 -9999 -9999 -9999 -9999 -9999 -9999 -9999 -9999 -9999 -9999 -9999 -9999 -9999 -9999 -9999 -9999 -9999 -9999 -9999 -9999 -9999 -9999 -9999 -9999 -9999 -9999 -9999 -9999 -9999 -9999 -9999 -9999 -9999 -9999 -9999 -9999 -9999 -9999 -9999 -9999 -9999 -9999 -9999 -9999 -9999 -9999 -9999 -9999 -9999 -9999 -9999 -9999 -9999 -9999 -9999 -9999 -9999 -9999 -9999 -9999 -9999 -9999 -9999 -9999 -9999 -9999 -9999 -9999 -9999 -9999 -9999 -9999 -9999 -9999 -9999 -9999 -9999 -9999 -9999 -9999 -36 -59.6666666666667 -38 -57.5 -88 -92 -543.5 -1073.5 -1260.5 -1342 -2096.5 -2614.5 -2790.5 -2854.5 -2985 -3208.5 -3243.5 -3342 -3463.5 -3442.5 -3582 -3643.5 -3521.5 -3565 -3603 -3590 -3685.5 -3675 -3687 -3707 -3832 -3800.5 -3816 -3858.5 -3842.5 -3852 -3858 -3867 -3898 -3898.5 -3896 -3871.5 -3844.5 -3857.5 -3851.5 -3805.5 -3752 -3731.5 -3700.5 -3686.5 -3717.5 -3692.5 -3599.5 -3580 -3709 -3774 -3751.5 -3712 -3393.5 -3191.5 -2660 -2635 -2457.5 -2331 -2473 -2451.5 -2328.5 -2552.5 -2481.5 -2481.5
-4230.75 -4188.75 -4198.75 -4191 -4121.5 -4062.75 -4067.25 -3999 -3984 -3966.5 -3936.25 -3859.5 -3831.5 -3749.75 -3712 -3643 -3571 -3481.25 -3407 -3254.5 -3128.25 -2918.25 -2818.5 -2589.5 -2431.25 -2003.5 -1807.25 -1429 -1268 -977.25 -877.75 -692.5 -600.75 -653 -565 -292.25 -222.75 -183.75 -169.25 -97.25 -49.25 -50 -38.3333333333333 -38.3333333333333 -9999 -9999 -9999 -9999 -9999 -9999 -9999 -9999 -9999 -9999 -9999 -9999 -9999 -9999 -9999 -9999 -9999 -9999 -9999 -9999 -9999 -9999 -9999 -9999 -9999 -9999 -9999 -9999 -9999 -9999 -9999 -9999 -9999 -9999 -9999 -9999 -9999 -9999 -9999 -9999 -9999 -9999 -9999 -9999 -9999 -9999 -9999 -9999 -9999 -9999 -9999 -9999 -9999 -9999 -9999 -9999 -9999 -9999 -9999 -9999 -9999 -9999 -9999 -9999 -9999 -9999 -9999 -9999 -9999 -9999 -9999 -9999 -9999 -9999 -9999 -9999 -9999 -9999 -9999 -9999 -9999 -9999 -9999 -9999 -9999 -2 -21.5 -36 -59.6666666666667 -96 -107 -152.5 -358 -1521.25 -2148.5 -2111.5 -2109.75 -1945.5 -2336.75 -3063 -3148.25 -3204 -3295 -3458.25 -3480.25 -3545.5 -3549.75 -3603.75 -3620.5 -3645.5 -3667.75 -3591.5 -3619.75 -3654.25 -3655.75 -3720 -3760 -3792 -3793.5 -3817.25 -3838.75 -3854.75 -3875.25 -3892.5 -3904.5 -3937 -3935 -3892.25 -3883.75 -3930.5 -3944.75 -3854.75 -3821.75 -3779.25 -3762.25 -3699.5 -3697.25 -3712.25 -3694.25 -3762.25 -3818.75 -3791 -3737.5 -3413.25 -3299.5 -3190.75 -3109.75 -2859.5 -2825 -2761.75 -2565.5 -2298.75 -2352.5 -2468 -2675.75 -2570.25 -2570.25
-4217.5 -4243.5 -4245 -4223.5 -4192 -4143.5 -4146 -4081 -4072.5 -4092 -4036.5 -3930.5 -3918.5 -3882 -3815 -3729.5 -3690.5 -3613 -3541 -3419 -3305.5 -3070.5 -2899 -2644 -2496.5 -2129 -1958 -1559.5 -1408 -1202 -1080.5 -844 -715.5 -721 -548 -250.5 -224 -187.5 -176 -141 -114 -76.5 -49 -49 -16 -16 -9999 -9999 -9999 -9999 -9999 -9999 -9999 -9999 -9999 -9999 -9999 -9999 -9999 -9999 -9999 -9999 -9999 -9999 -9999 -9999 -9999 -9999 -9999 -9999 -9999 -9999 -9999 -9999 -9999 -9999 -9999 -9999 -9999 -9999 -9999 -9999 -9999 -9999 -9999 -9999 -9999 -9999 -9999 -9999 -9999 -9999 -9999 -9999 -9999 -9999 -9999 -9999 -9999 -9999 -9999 -9999 -9999 -9999 -9999 -9999 -9999 -9999 -9999 -9999 -9999 -9999 -9999 -9999 -9999 -9999 -9999 -9999 -9999 -9999 -9999 -9999 -9999 -9999 -9999 -9999 -16 -49.5 -52 -2 -21.5 -89 -90.5 -98.5 -118 -382 -780 -2182 -2680.5 -2353 -2375.5 -2564.5 -2598.5 -3081.5 -3356.5 -3528 -3544 -3594.5 -3646.5 -3664 -3690 -3690 -3689 -3774 -3792 -3730 -3742.5 -3734 -3788 -3808 -3816.5 -3838.5 -3893 -3852 -3858 -3878.5 -3896 -3922.5 -3944.5 -3954 -3929 -3915 -3930.5 -3968.5 -3992 -3890.5 -3866.5 -3819 -3826.5 -3752.5 -3715.5 -3673 -3600 -3771 -3821.5 -3433.5 -3259.5 -3062 -2897 -2906.5 -2939.5 -3001 -2817 -2233 -2218 -2249.5 -2358.5 -2581.5 -2708 -2662.5 -2662.5
-4297.5 -4301.5 -4298.5 -4277 -4261.5 -4229.25 -4210.5 -4149.25 -4122.75 -4087.5 -4076.75 -4023.5 -3991.5 -3939.75 -3902.25 -3833.75 -3829 -3740.5 -3647.5 -3570 -3452.25 -3208.25 -3055.25 -2762.25 -2603 -2251 -2080.75 -1757.5 -1699.25 -1569 -1404 -1073 -1009 -715.25 -490 -278.5 -239.25 -202 -188.5 -152 -134 -97.25 -75.25 -33.6666666666667 -16 -16 -9999 -9999 -9999 -9999 -9999 -9999 -9999 -9999 -9999 -9999 -9999 -9999 -9999 -9999 -9999 -9999 -9999 -9999 -9999 -9999 -9999 -9999 -9999 -9999 -9999 -9999 -9999 -9999 -9999 -9999 -9999 -9999 -9999 -9999 -9999 -9999 -9999 -9999 -9999 -9999 -9999 -9999 -9999 -9999 -9999 -9999 -9999 -9999 -9999 -9999 -9999 -9999 -9999 -9999 -9999 -9999 -9999 -9999 -9999 -9999 -9999 -9999 -9999 -9999 -9999 -9999 -9999 -9999 -9999 -9999 -9999 -22 -26 -37 -42.5 -38 -23 -4 -3 -37 -16 -49.5 -52 -72.25 -87 -116.75 -190 -297 -494.75 -1232.5 -1605.25 -2094.5 -1981.5 -2433.5 -2839.75 -3039.5 -3145 -3409 -3587.25 -3731.5 -3709 -3724 -3730.5 -3788.75 -3798.75 -3800.75 -3787.5 -3888.5 -3835.5 -3802.75 -3800 -3818.5 -3821.5 -3843.5 -3884.5 -3882.75 -3885.75 -3902 -3909.25 -3918.25 -3937 -3970 -3973.5 -3939.25 -3930.25 -3951.25 -3937.75 -3906.5 -3924.5 -3897 -3884.25 -3823.75 -3802.5 -3811.25 -3780.75 -3689.75 -3684.75 -3672 -3560 -3210 -2963.75 -2785.75 -2770.75 -2846.75 -2739.25 -2483.25 -2336.25 -1996.25 -2045.25 -2208 -2310.5 -2565.5 -2679.25 -2657.75 -2657.75
-4340.5 -4332 -4334 -4322 -4313.5 -4293 -4272 -4204 -4201 -4137.5 -4112 -4082.5 -4057.5 -3985 -3951 -3886.5 -3871.5 -3810 -3770 -3666.5 -3592 -3229 -3050 -2729 -2613 -2473.5 -2390 -2249.5 -2220.5 -2088 -1978.5 -1347.5 -1137 -726.5 -491 -288.5 -251.5 -214.5 -195 -169 -144 -111.5 -87 -29.5 -16 -16 -9999 -9999 -9999 -9999 -9999 -9999 -9999 -9999 -9999 -9999 -9999 -9999 -9999 -9999 -9999 -9999 -9999 -9999 -9999 -9999 -9999 -9999 -9999 -9999 -9999 -9999 -9999 -9999 -9999 -9999 -9999 -9999 -9999 -9999 -9999 -9999 -9999 -9999 -9999 -9999 -9999 -9999 -9999 -9999 -9999 -9999 -9999 -9999 -9999 -9999 -9999 -9999 -9999 -9999 -9999 -9999 -9999 -9999 -9999 -9999 -9999 -9999 -9999 -9999 -9999 -9999 -9999 -9999 -9999 -9999 -19 -22 -26 -37 -42.5 -38 -23 -4 -3 -37 -47 -77.5 -68 -77.5 -104 -98 -221.5 -833.5 -1388 -2233.5 -2256 -2241 -2303 -2889.5 -3176.5 -3400 -3588.5 -3703 -3720 -3767 -3764.5 -3773 -3789.5 -3919 -3891.5 -3855.5 -3849.5 -3904 -3871 -3810 -3832.5 -3820.5 -3817 -3798.5 -3832 -3920 -3913.5 -3941 -3951 -3962.5 -3968 -3981.5 -3958.5 -3956 -3952 -3933.5 -3932.5 -3911 -3890.5 -3891.5 -3887.5 -3898.5 -3892.5 -3940 -3910.5 -3842 -3767 -3548.5 -3395.5 -2984.5 -2835 -2760 -2687 -2577 -2508 -2391.5 -2310.5 -2163 -2059.5 -2023.5 -2135 -2361.5 -2542 -2606 -2606
-4400.25 -4382.25 -4379 -4362.5 -4353.5 -4327.75 -4309.25 -4274.25 -4259.75 -4205.5 -4177.75 -4135.5 -4105 -4065.5 -4040.75 -3971.75 -3953.5 -3883 -3849 -3761.75 -3722 -3347.25 -3147.5 -2883.5 -2832.5 -2753 -2707.5 -2692.5 -2641.75 -2294.75 -2192.25 -1869.25 -1555.5 -796.25 -537 -312.25 -287.25 -248.5 -228.25 -177.75 -160 -120 -90.5 -31.6666666666667 -18 -18 -9999 -9999 -9999 -9999 -9999 -9999 -9999 -9999 -9999 -9999 -9999 -9999 -9999 -9999 -9999 -9999 -9999 -9999 -9999 -9999 -9999 -9999 -9999 -9999 -9999 -9999 -9999 -9999 -9999 -9999 -9999 -9999 -9999 -9999 -9999 -9999 -9999 -9999 -9999 -9999 -9999 -9999 -9999 -9999 -9999 -9999 -9999 -9999 -9999 -9999 -9999 -9999 -9999 -9999 -9999 -9999 -9999 -9999 -9999 -9999 -9999 -9999 -9999 -9999 -2 -7 -7 -9999 -9999 -9999 -19 -37.25 -44.5 -62.75 -67.25 -77 -89.6666666666667 -79 -96.5 -95.25 -110.75 -94.5 -90.75 -111 -144.25 -370.75 -612.5 -1427 -1790.25 -2409.75 -2668.25 -3065.25 -3116.5 -3502.5 -3590 -3689 -3715.75 -3727.5 -3727.75 -3731 -3760.5 -3794.5 -3814.5 -3877 -3861 -3877.75 -3882.5 -3956 -3891.5 -3847.75 -3864 -3854.75 -3877.5 -3940.75 -3949.75 -3943.5 -3946.5 -3963.25 -3991 -4025.25 -4023.25 -3978.5 -3980.75 -3941.75 -3918 -3876.75 -3887.25 -3943.5 -3941.75 -3944 -3945.25 -4037.5 -4046.25 -4015.5 -4012 -3855.75 -3743 -3449.25 -3252.25 -2915 -2773.5 -2669 -2605 -2340.25 -2369.75 -2372.25 -2290.75 -2189.25 -2102 -2045.25 -2091.75 -2278 -2446.5 -2615.5 -2615.5
-4429 -4426 -4420.5 -4401.5 -4392 -4375.5 -4360 -4302.5 -4278.5 -4239 -4232 -4230.5 -4174.5 -4134.5 -4096 -3968 -3966 -3967 -3916 -3860 -3818.5 -3517 -3315.5 -3115 -3079 -2978.5 -2956 -2934.5 -2731 -2613 -2656 -2203 -1771 -996 -656.5 -335.5 -297 -267.5 -242.5 -190 -157.5 -107 -89.5 -38 -38 -12 -20 -11 -11 -9999 -9999 -9999 -9999 -9999 -9999 -9999 -9999 -9999 -9999 -9999 -9999 -9999 -9999 -9999 -9999 -9999 -9999 -9999 -9999 -9999 -9999 -9999 -9999 -9999 -9999 -9999 -9999 -9999 -9999 -9999 -9999 -20 -41 -58.5 -59 -44.25 -47 -55.5 -48 -34 -36.5 -31.5 -22 -18.5 -39 -82.5 -88 -109 -82 -62 -86.5 -67 -30.5 -30.5 -9999 -9999 -9999 -9999 -9999 -29.25 -2 -7 -7 -77.6666666666667 -95 -101.5 -17 -47 -49.5 -78 -90.5 -101.5 -110 -110.5 -106 -92.5 -100 -88.5 -107 -253.5 -486 -1200.5 -1505 -1947.5 -2251.5 -2845 -2926 -3433.5 -3481 -3593.5 -3636.5 -3687 -3715 -3730.5 -3732.5 -3753 -3725 -3823.5 -3828.5 -3840 -3804 -3911.5 -3963 -3882.5 -3889 -3841.5 -3860.5 -3917 -3948.5 -4035.5 -4027.5 -4024.5 -4025 -4022.5 -4058.5 -4089.5 -4070.5 -4084.5 -4076.5 -3879.5 -3837.5 -3846 -3870.5 -4042 -4017.5 -3982 -4045 -4191.5 -4212 -3940 -3797.5 -3614 -3511.5 -3155 -2929.5 -2525.5 -2595.5 -2632.5 -2593 -2316.5 -2229 -2197 -2131 -1895 -1854.5 -1864.5 -1973 -2198.5 -2229.5 -2485 -2485
-4454.5 -4454.25 -4453 -4442 -4428.5 -4394.25 -4371 -4355.25 -4336.25 -4318 -4286.5 -4254.25 -4239.5 -4171.25 -4157.5 -4102.25 -4079.25 -4025.75 -3993.5 -3929.5 -3918 -3777.75 -3590.25 -3331.75 -3280 -3165.75 -3182.5 -2992.75 -2883.5 -2965.5 -2874.25 -2426 -2088.25 -1316 -876 -372.5 -323 -283.75 -244.75 -209.5 -186.25 -146 -102 -102 0 -12 -20 -11 -11 -26 -9999 -9999 -9999 -9999 -9999 -9999 -9999 -9999 -9999 -9999 -9999 -9999 -9999 -9999 -9999 -9999 -9999 -9999 -9999 -9999 -9999 -9999 -9999 -9999 -9999 -9999 -9999 -9999 -9999 -9999 -9999 -20 -41 -58.5 -59 -44.25 -47 -55.5 -48 -34 -36.5 -31.5 -22 -18.5 -39 -82.5 -88 -109 -82 -62 -86.5 -67 -30.5 -30.5 -25 -25 -9999 -9999 -22 -29.25 -43.75 -76.25 -75.75 -77.6666666666667 -95 -101.5 -73.6666666666667 -81.5 -97.75 -106.75 -102.75 -119.75 -124.75 -117.5 -111.5 -81 -97.75 -210.75 -378.5 -811.75 -1163.25 -1867 -2021.25 -2289.5 -2621.25 -3191 -3308.5 -3571.25 -3622.25 -3643.75 -3680.75 -3748.75 -3738.5 -3742 -3643.25 -3687.5 -3788.75 -3769.5 -3796.75 -3777.25 -3818.5 -3846.25 -3884 -4011.5 -3921 -3952.25 -4008.5 -3997 -4015.75 -4076.75 -4093 -4120.75 -4134.75 -4106 -4130 -4120.5 -4126.5 -4125.75 -4110.25 -4018 -3989 -3966 -3945.25 -3934 -3953.5 -4065.5 -4064 -4001.75 -3925.25 -3585.25 -3451.75 -3257 -3160.75 -2795.5 -2708 -2622.5 -2689.25 -2524.75 -2350.75 -2036.75 -1884 -2132.25 -2214.25 -1840.75 -1856 -1704.75 -1746.75 -2099 -2178.75 -2367.5 -2367.5
-4490 -4480.5 -4479.5 -4469 -4454 -4432.5 -4421 -4388.5 -4379 -4385 -4397.5 -4315.5 -4318.5 -4292 -4268.5 -4179 -4135.5 -4054 -4094.5 -4029.5 -3979 -3911 -3828.5 -3502.5 -3503.5 -3338.5 -3315.5 -3267 -3301.5 -3194.5 -2969 -2458 -2266 -1713 -1311 -512 -371.5 -291 -285.5 -249.5 -234.5 -191 -121 -121 -31 -37 -33.5 -28 -26 -26 -9999 -9999 -9999 -9999 -9999 -9999 -9999 -9999 -9999 -9999 -9999 -9999 -9999 -9999 -9999 -9999 -9999 -9999 -9999 -9999 -9999 -9999 -9999 -9999 -9999 -9999 -9999 -9999 -9999 -34.6666666666667 -53.25 -25 -52.5 -58.5 -68 -68 -70 -75.5 -74.5 -68.5 -80 -94.5 -109 -111 -103 -95.5 -97.5 -101 -97 -101.5 -82.5 -91 -74.5 -54 -25 -25 -96.75 -94.5 -22 -57.5 -73 -102.5 -111 -118.5 -115 -109 -102.5 -106 -111.5 -122 -115 -118 -118 -110 -119 -30.5 -151 -612 -879 -1439 -1706 -2580 -2861.5 -2918 -3079.5 -3445.5 -3239.5 -3470 -3601 -3671 -3696 -3808.5 -3737.5 -3717.5 -3667.5 -3763.5 -3796 -3810 -3918.5 -3830.5 -3868 -3893 -3916 -3986 -3994 -4053 -4065.5 -4111.5 -4125.5 -4134.5 -4136.5 -4138.5 -4130.5 -4168.5 -4151 -4200.5 -4193.5 -4138.5 -4104.5 -4124 -4039.5 -3969 -3966.5 -3987 -3990.5 -3888.5 -3878 -3779 -3683 -3490 -3350.5 -3035 -2994.5 -2874.5 -2839.5 -2765.5 -2635 -2386 -2258 -2014.5 -1890 -1873 -1734.5 -1133 -1304 -1959.5 -1924 -1940.5 -2046.5 -2253.5 -2253.5
-4516.75 -4511.25 -4510 -4496.75 -4491.75 -4478 -4467 -4451.25 -4424 -4373.25 -4368.25 -4344.5 -4291 -4286 -4324.25 -4212.25 -4131.75 -4098.5 -4170 -4070.75 -3999.75 -3919.25 -3866 -3672.25 -3623.75 -3535 -3515.75 -3371.25 -3168.25 -2836.25 -2793.5 -2698.25 -2545 -1948.25 -1553.25 -725.75 -529.25 -368.25 -333.25 -263.75 -265.5 -228.75 -169.25 -28.5 -24.5 -55.25 -61.25 -42 -23 -23 -34 -34 -9999 -9999 -9999 -9999 -9999 -9999 -9999 -9999 -9999 -9999 -9999 -9999 -9999 -9999 -9999 -9999 -9999 -9999 -9999 -9999 -9999 -9999 -9999 -5 -5 -9999 -23 -34.6666666666667 -53.25 -64.5 -70.5 -74.5 -73.75 -74.75 -76.25 -92.5 -90.25 -97 -91.25 -100.5 -104.5 -95.5 -99 -108.75 -104.75 -114.75 -121.75 -103.75 -95 -124 -103.75 -104 -97.5 -96.5 -96.75 -94.5 -96.75 -115.75 -116.75 -118.75 -117.25 -113.25 -108.5 -105.75 -99.5 -112 -106.5 -113.25 -117 -113.5 -142.5 -198 -367.5 -1334 -1302.75 -1586.75 -1843.5 -2257 -2375 -2847.75 -3146 -3636.25 -3646.25 -3593.5 -3562 -3624.75 -3658 -3698.75 -3755 -3864 -4003.25 -3822.25 -3824.25 -3782 -3707.75 -4002 -4009.25 -3986.5 -3983.75 -3996.75 -4011.75 -4030 -4065 -4138 -4166.5 -4192.5 -4202 -4209.25 -4240.75 -4229.25 -4221 -4201.5 -4622.75 -4676.25 -4322 -4203.75 -4176.25 -4258.25 -4168 -4030.75 -4031.75 -4042.25 -4137.5 -4128.75 -4011.5 -3642.25 -3546.25 -3392.25 -3282 -2941 -2861.25 -2814.25 -2771.5 -2749 -2696 -2628.5 -2623 -2407 -2157.25 -1825 -1561 -958.25 -1077.5 -1962.25 -2099.5 -2205 -2228.25 -2400.75 -2400.75
-4516 -4526 -4526.5 -4512 -4516 -4497.5 -4474 -4439 -4431.5 -4457.5 -4501.5 -4455 -4405 -4327.5 -4342 -4295.5 -4251.5 -4184.5 -4152.5 -4083 -4051.5 -3958 -3902.5 -3766.5 -3685 -3518.5 -3444.5 -3107.5 -2959.5 -2907.5 -2975 -2926 -2761.5 -2032.5 -1659.5 -1131 -852 -461 -390.5 -306.5 -288.5 -293.5 -264.5 -102.5 -37.5 -58 -75 -40 -2 -34.5 -34 -34 -34.75 -11 -11 -9999 -9999 -9999 -9999 -9999 -9999 -9999 -9999 -9999 -6 -46 -60.5 -60 -47.3333333333333 -66.75 -65.5 -61 -58.3333333333333 -49 -56 -5 -5 -58 -23 -54 -69.5 -85 -83 -81.5 -87.5 -121 -109.5 -84.5 -87 -100.5 -93 -105 -110.5 -106.5 -109 -112 -118.5 -82.5 -102 -123.5 -111 -108 -117.5 -117 -112 -118 -115.5 -122 -119 -125.5 -126.5 -127 -125 -127 -135.5 -153 -154 -172.5 -162 -234 -184.5 -561 -955.5 -1139.5 -1484 -2212.5 -2383.5 -2339 -2323.5 -2923.5 -3233 -3384 -3554.5 -3639.5 -3617.5 -3679 -3672 -3711.5 -3729.5 -3808.5 -3888.5 -3890 -3983 -3951 -4025.5 -3886.5 -3888 -4037 -4010 -4047.5 -4032 -4072.5 -4090 -4106.5 -4155.5 -4226 -4212.5 -4246.5 -4258.5 -4277 -4310 -4268.5 -4251.5 -4365.5 -4378.5 -4327.5 -4289.5 -4241.5 -4223 -4238.5 -4245 -4191 -4184.5 -4052 -4111 -4119 -3965 -3847.5 -3721.5 -3316 -3194.5 -3002 -2978 -2800 -2664 -2617.5 -2745.5 -2754 -2747 -2753 -2618.5 -2279.5 -2175 -2015 -2077 -2442.5 -2447 -2473.5 -2439.5 -2484 -2484
-4549.5 -4522.5 -4523.5 -4522.5 -4528.25 -4513.75 -4513.25 -4491.75 -4482.75 -4473.25 -4467 -4457.25 -4450 -4408.5 -4383.75 -4342.5 -4289 -4233.25 -4195.25 -4165.5 -4152.75 -3985 -3972.25 -3878.5 -3777.25 -3500.5 -3405.5 -3252.75 -3239 -3238 -3100 -2663 -2377.75 -1922.5 -1793 -1584.25 -1389.5 -715.5 -515.25 -340.25 -298.75 -346 -335.75 -208 -160.75 -128 -118.25 -90.25 -87.25 -86 -76.5 -46 -34.75 -11 -11 -9999 -9999 -9999 -9999 -9999 -9999 -9999 -9999 -5 -6 -46 -60.5 -60 -47.3333333333333 -66.75 -65.5 -61 -58.3333333333333 -49 -56 -66.75 -70.75 -58 -65.5 -78 -77.75 -72.75 -74 -86 -82.5 -106.75 -101 -98.75 -99.75 -105.25 -97.75 -108 -110 -107.75 -111.75 -114.25 -113.25 -111.5 -113.5 -128.25 -124.25 -125.5 -123.75 -124.5 -124.75 -114.5 -123.5 -124.75 -125.25 -111.25 -121 -128.5 -145.25 -219.5 -277 -457.75 -508.75 -741.25 -726.75 -1004 -1083.75 -1416.25 -1810.5 -1922.75 -1951 -2051.75 -2417.75 -2824.75 -2937.75 -3382.75 -3523.25 -3707.5 -3752.5 -3812.25 -3728.5 -3752.75 -3749.5 -3809.75 -3845 -4006.75 -4082 -3933 -3967 -4053 -4040.25 -4070 -4085.5 -4071.75 -4100.5 -4096.5 -4118.25 -4180.5 -4177.5 -4284 -4236.25 -4262.5 -4268.5 -4355.5 -4366.75 -4318 -4318.25 -4307 -4301.5 -4378.5 -4342.25 -4277.75 -4288.75 -4270 -4254.25 -4219.25 -4214 -4156.25 -4138 -4128.25 -4149.75 -4129 -3903.75 -3611.75 -3549.5 -3422.25 -3338.5 -3063.75 -2936.75 -2739.75 -2646.5 -2372.25 -2261.75 -2283 -2275.75 -2511.75 -2582.25 -2639 -2654 -2419.5 -2435 -2475 -2353.25 -2067.5 -2046.25 -2093.75 -2093.75
-4570.5 -4558.5 -4556 -4568.5 -4570 -4541.5 -4543 -4518.5 -4514.5 -4520 -4513 -4579 -4553.5 -4420 -4374.5 -4466.5 -4382 -4316.5 -4263.5 -4236 -4292 -4052.5 -3976.5 -3899 -3790.5 -3579 -3529 -3447 -3383.5 -3159 -2927.5 -2379 -2303 -2192 -2111.5 -1948.5 -1828.5 -1119.5 -808.5 -426 -359.5 -373.5 -400 -251 -206.5 -166.5 -159 -146.5 -139.5 -122 -111.5 -82.5 -59 -59 -23.6666666666667 -23.6666666666667 -9999 -9999 -9999 -9999 -9999 -18 -16.6666666666667 -5 -17.5 -58 -70 -76 -76.5 -76 -75 -69 -68 -66 -67 -71.5 -72 -71 -74.5 -75.5 -81.5 -85 -75.5 -94 -94.5 -104 -101 -104 -107.5 -115 -113 -140.5 -107.5 -117 -108.5 -116.5 -121.5 -127 -128.5 -120 -118.5 -116.5 -113 -115.5 -122.5 -106 -72.5 -147 -142.5 -150.5 -193 -356 -412 -601.5 -894 -2035 -2408 -1686.5 -1795 -1891 -1854.5 -1908.5 -2125 -2722.5 -2667.5 -2628 -2887.5 -3460.5 -3578.5 -3787.5 -3839.5 -4012.5 -3875.5 -3926 -3849.5 -3921.5 -3915.5 -3903 -3949 -3995.5 -3972 -4081 -4077 -4100 -4147.5 -4149 -4174 -4132 -4145 -4299.5 -4285 -4246 -4213 -4325 -4295 -4289.5 -4290 -4341.5 -4351 -4344.5 -4348 -4346.5 -4351 -4331 -4303.5 -4257 -4282 -4284 -4314.5 -4231 -4193 -4253 -4189.5 -4075 -4153.5 -4171.5 -3956.5 -3487.5 -3459 -3471.5 -3435 -3269 -3088.5 -2881.5 -2757 -2263 -2157 -2195.5 -2096.5 -2406.5 -2563 -2562.5 -2608.5 -2296.5 -2339 -2537 -2532.5 -2287 -2311.5 -2320.5 -2320.5
-4600.75 -4577.5 -4588.5 -4556 -4524.75 -4537 -4529.5 -4540.75 -4550.75 -4560.75 -4568.5 -4582.5 -4542.75 -4508.25 -4451.5 -4437.75 -4400.5 -4324.75 -4306 -4259.5 -4191.25 -4089.75 -4040.25 -3900.5 -3809 -3664.5 -3586 -3421.75 -3294 -2904 -2740.75 -2595.5 -2580 -2456.5 -2443.5 -2191.25 -1989 -1490.75 -1262.5 -707.25 -535 -544.75 -499.75 -313.75 -231.75 -184.25 -176.75 -163.25 -158.5 -144 -126.5 -79.5 -47 -19.5 -23.6666666666667 -23.6666666666667 -15 -2.5 -5 -5 -12 -18 -16.6666666666667 -25.75 -42.25 -82 -85.75 -85.5 -84.5 -79.25 -76.5 -69.75 -68 -72.25 -71.5 -73.75 -75.75 -79.25 -83.75 -81 -88.75 -91.5 -95 -104.25 -106.5 -114 -119 -113.5 -116.75 -116.75 -118 -120.75 -121 -128.75 -131.5 -134 -131.25 -128.25 -133 -130.75 -127.75 -139 -142.5 -154.5 -138.75 -149.5 -211.5 -387.5 -311 -150.5 -236.25 -251 -587.25 -1325.25 -1693.25 -2372.25 -2127 -2109.5 -2241.5 -2300.25 -2173.25 -2412 -2464 -2911.75 -3266.75 -3500.5 -3409.75 -3755 -3945.25 -3940.5 -4010.25 -4077 -3914.75 -3953 -3958.5 -3992.75 -4004.25 -4061.25 -4048 -4138.75 -4140.75 -4238.5 -4227 -4223 -4265.5 -4255.75 -4250.25 -4266.25 -4252.25 -4337 -4337.5 -4319.75 -4316.25 -4348 -4359 -4365.5 -4370.75 -4360.5 -4364.25 -4400.75 -4325.5 -4257.25 -4295.25 -4232.25 -4232.25 -4264.5 -4303.75 -4307 -4363.5 -4360.75 -4336 -4281 -4288.25 -4194 -4156.75 -4280.75 -4088.25 -3857.75 -3730 -3540.75 -3471 -3342 -3207.25 -3081 -2855.75 -2615.25 -2517 -2286.25 -2244.5 -2255.25 -2435.5 -2467.75 -2418 -2271.5 -2322.75 -2349.25 -2247.25 -2335.5 -2434 -2608.75 -2608.75
-4560 -4593.5 -4605 -4585.5 -4567 -4551.5 -4520.5 -4523 -4539 -4557.5 -4586 -4478 -4434 -4604 -4552.5 -4461.5 -4456.5 -4345.5 -4323.5 -4274 -4235.5 -4144 -4087 -3955 -3872 -3620.5 -3468.5 -3187.5 -3073 -3023.5 -3000.5 -2775 -2704 -2645 -2602 -2247 -2077.5 -1817 -1716 -1069.5 -914 -814 -663.5 -362.5 -283 -193 -187 -175 -168.5 -157 -147.5 -121 -111 -100 -87 -35 -15 -2.5 -5 -5 -12 -39.5 -59.5 -86 -84.5 -89 -90 -85 -85 -82.5 -80 -67 -71.5 -77 -80 -78 -83.5 -93.5 -95.5 -105 -105.5 -109 -109 -111 -124 -116.5 -119 -123 -118 -119.5 -123 -130.5 -139.5 -127 -137 -171.5 -160.5 -162.5 -169.5 -182.5 -190 -212 -250 -273.5 -288 -286 -309 -442 -487 -390.5 -597 -1276.5 -2360 -1851 -1793.5 -1992 -2057.5 -2468 -2849.5 -3051.5 -2821.5 -3069.5 -3004.5 -3421.5 -3686 -3837 -3903.5 -3955.5 -4010.5 -4084 -4119 -4065 -4070.5 -4059.5 -4094.5 -4123 -4152.5 -4117 -4155.5 -4251 -4296.5 -4249.5 -4308.5 -4389 -4486 -4353 -4315 -4408.5 -4358.5 -4426.5 -4460 -4418.5 -4414 -4406.5 -4400.5 -4393 -4394 -4374 -4414.5 -4503 -4381.5 -4257 -4349.5 -4358 -4283.5 -4348 -4408 -4314 -4404.5 -4475.5 -4428.5 -4304 -4293 -4395.5 -4205 -4164 -4100.5 -4096 -3905 -3085 -2927.5 -3193 -3141.5 -3266.5 -3075.5 -2766 -2648 -2387.5 -2330 -2345.5 -2394 -2525.5 -2439.5 -2392 -2347 -2426 -2411 -2391 -2566.5 -2865 -2865
-4606.75 -4653 -4672.5 -4696.75 -4663.25 -4618.5 -4659.25 -4614.5 -4588.75 -4594.25 -4619.25 -4528.25 -4477.5 -4600.75 -4571.5 -4402.25 -4411.25 -4392 -4361.75 -4337 -4282.25 -4204.25 -4143.75 -3992.75 -3911.25 -3657.25 -3518.25 -3299.25 -3253 -3204.75 -3122.75 -3008 -2999 -2793.5 -2621.5 -2347.5 -2295.5 -2300.75 -2222 -1585 -1365.25 -978.75 -643 -412.25 -357.25 -226.25 -204.5 -197 -184 -169.75 -165.75 -153.5 -139.75 -114.25 -113 -91.75 -79 -48.5 -37.25 -28.5 -37 -61 -76.5 -95.5 -99 -99.5 -96.75 -91.75 -90.25 -85.75 -81.5 -76.25 -81.25 -84.5 -85 -90.75 -91.75 -97.5 -99.5 -101.5 -100.5 -98.25 -102.25 -109.75 -116.25 -120.75 -128.5 -136.5 -140 -139.25 -156.25 -159.75 -186.5 -206.75 -185.5 -241.25 -272 -274.25 -303.5 -384.75 -381.75 -358.75 -384.75 -481.25 -427.5 -531.25 -590.5 -764.25 -838.5 -2212 -2405 -2432.5 -2042.75 -2101.75 -2208.25 -2360.75 -2479.75 -3368.5 -3649.25 -3574.75 -3509.25 -3706.25 -3776.25 -3938 -3969.75 -3966.75 -3991 -4187.25 -4179.25 -4219.5 -4314.25 -4230 -4223 -4230.75 -4209.75 -4244 -4244.25 -4259.5 -4315.5 -4330 -4318 -4411 -4477 -4345 -4340.75 -4284.75 -4292.75 -4430 -4446 -4419.5 -4428.25 -4419.5 -4417.75 -4403.25 -4414.25 -4446.25 -4458.75 -4421.75 -4395.25 -4339.25 -4257.75 -4313.75 -4342 -4347.25 -4325 -4336.75 -4350 -4465.25 -4406.75 -4272.5 -4451.75 -4447.75 -4330.5 -4420.75 -4387.25 -4338 -4326.75 -4269 -4197.75 -3882.25 -3625.25 -3411.5 -3497 -3283.25 -3077.5 -2847 -2771.5 -2651 -2670.5 -2689.25 -2623.75 -2809.75 -2850.5 -2737.25 -2726.5 -2686.25 -2736.25 -2647.75 -2778.25 -2984.25 -2984.25
-4653.5 -4688.5 -4682 -4687.5 -4680.5 -4742.5 -4721.5 -4682.5 -4721 -4633.5 -4650.5 -4637 -4579 -4521.5 -4526 -4514 -4509 -4455 -4415.5 -4390.5 -4358 -4242.5 -4222 -4059 -3995.5 -3757.5 -3650.5 -3490.5 -3404.5 -3335 -3269 -3161 -2964 -2693.5 -2624.5 -2544.5 -2586 -2629.5 -2486.5 -1699.5 -1640 -1462 -1142 -607.5 -430 -378.5 -282.5 -200.5 -192 -166 -174.5 -170.5 -166 -153 -150.5 -137 -123.5 -82.5 -65.5 -64 -84.5 -103.5 -103.5 -104.5 -101.5 -103 -97.5 -92 -85 -77.5 -78 -81 -85 -88.5 -91 -99 -101 -109.5 -111.5 -109 -106 -107 -107.5 -116 -118.5 -134 -144 -157 -172.5 -198 -208 -179 -208.5 -349 -303 -403.5 -452 -530.5 -591 -712 -760 -801.5 -817.5 -873 -925.5 -1089.5 -1158 -2235 -3259.5 -2353.5 -1965.5 -2142 -2183.5 -2516.5 -2806 -3462 -3735 -3924.5 -3887 -3911 -3916 -4058.5 -4046 -4012.5 -4063.5 -4173.5 -4129 -4202 -4205 -4219.5 -4259.5 -4268.5 -4276.5 -4309.5 -4316 -4321.5 -4318.5 -4337.5 -4349 -4380.5 -4396.5 -4299 -4317.5 -4397.5 -4379.5 -4375 -4408.5 -4444 -4442.5 -4435.5 -4434 -4446.5 -4449 -4318 -4399.5 -4532 -4536.5 -4393 -4359.5 -4430 -4443.5 -4411.5 -4385 -4380 -4406.5 -4469.5 -4502 -4318.5 -4028.5 -4049 -4346.5 -4376.5 -4331.5 -4426 -4468 -4502 -4511 -4309 -4221.5 -4127.5 -4055.5 -3766 -3680 -3460.5 -3224 -3031 -3014 -2973 -2844 -2719.5 -2696.5 -2736.5 -2900.5 -3061 -2912 -3010 -3125.5 -2920.5 -2870.5 -2980 -2980
-4725.75 -4680.75 -4676.25 -4748 -4740.5 -4787.75 -4746.5 -4781.5 -4777.25 -4646 -4649.25 -4626.25 -4589.25 -4579.5 -4611 -4528.75 -4518.25 -4475.5 -4459.25 -4404.75 -4361 -4252 -4230.5 -4091 -4041.75 -3718 -3637.25 -3532.25 -3488.5 -3285 -3145 -2910.75 -2769.75 -2671.5 -2666.75 -2754 -2808.5 -2754.5 -2669.5 -2049.75 -1920.75 -1986.5 -1879.25 -1239.5 -885.75 -468 -370.5 -235.75 -226.5 -190.25 -180.25 -173.75 -168.75 -164.5 -159 -152.25 -146.75 -121 -98 -83.25 -104.5 -115.25 -117 -108.25 -108 -110.75 -105 -97 -78.5 -74.75 -80.5 -85.25 -84.25 -97 -100 -113.5 -116.75 -117.75 -118.25 -114.75 -118.25 -110 -111.5 -120.75 -111 -165 -179.25 -215 -224.75 -274.75 -344.25 -408.25 -464 -533.5 -621.25 -699 -739.5 -977 -1049.5 -1138.5 -1166.5 -1256.25 -1299.5 -1326 -1339.5 -1819.75 -2302.5 -2844.5 -2429.75 -2027.75 -2156.75 -2463.25 -2685 -3755.75 -3963.25 -4143.5 -4137.75 -4092 -4079.25 -4132.75 -4155.75 -4144.25 -4157 -4192.75 -4212.75 -4113.5 -4135.5 -4304.5 -4282.5 -4267 -4303.5 -4240.75 -4299.5 -4353.5 -4370.75 -4340.5 -4351.5 -4350.5 -4321 -4489.75 -4536 -4412.5 -4411.5 -4492.25 -4450.75 -4411.25 -4422.75 -4443.25 -4441.75 -4454.75 -4443.5 -4426.25 -4445.25 -4495.75 -4528.5 -4511.25 -4522.5 -4327.25 -4369.25 -4437.5 -4409.75 -4445 -4442 -4459.75 -4474.25 -4538.5 -4538 -4375.25 -4285 -4350 -4443 -4417 -4436 -4370 -4303.25 -4325.75 -4362.75 -4300 -4195.75 -4073 -4062.75 -3717.25 -3710 -3501 -3199.75 -2985.75 -2991.5 -3028 -2857.25 -2266.5 -2091.5 -2039.5 -2235.25 -2701.75 -2792 -3108.75 -3301 -3249.75 -3248 -3214.25 -3214.25
-4750.5 -4732 -4739.5 -4715 -4714 -4709.5 -4706.5 -4761 -4751 -4741.5 -4665.5 -4624 -4605 -4606.5 -4624.5 -4553.5 -4548.5 -4505 -4488 -4437.5 -4393 -4321.5 -4273 -4206 -4198 -3868 -3752.5 -3600 -3478 -3177 -3024.5 -2903.5 -2842 -2820 -2838 -2943.5 -2951.5 -2885.5 -2803.5 -2307 -2178.5 -2383 -2312.5 -1458 -955.5 -627 -469 -234.5 -286.5 -239.5 -204 -195 -172.5 -170 -170 -162 -158.5 -151 -144.5 -120.5 -127 -127.5 -129 -121 -114 -103.5 -102.5 -96 -92 -84 -85 -91 -96.5 -106 -111 -121 -122.5 -124 -121.5 -127 -128.5 -121.5 -120 -148 -155.5 -192.5 -224 -277.5 -348.5 -528.5 -646 -726 -830.5 -946.5 -1010 -1219 -1335.5 -1489.5 -1499.5 -1507 -1530.5 -1660.5 -1738.5 -2550.5 -3007.5 -2194.5 -1948.5 -2041.5 -2097 -2337 -2449.5 -3077 -3855 -4534 -4307 -4166 -4145 -4176 -4232 -4277 -4210.5 -4215.5 -4245.5 -4066 -4168 -4232 -4239 -4346 -4220.5 -4227 -4376.5 -4313 -4340.5 -4352 -4339.5 -4376 -4395.5 -4440 -4429 -4672.5 -4640 -4438 -4439.5 -4413 -4410 -4427 -4435.5 -4521 -4492 -4487 -4489 -4448.5 -4453.5 -4594.5 -4554.5 -4411 -4431.5 -4395 -4457.5 -4471.5 -4458.5 -4487 -4461 -4490 -4481 -4573 -4553.5 -4492 -4471.5 -4494 -4526 -4408.5 -4393.5 -4428 -4397 -4379.5 -4323 -4174.5 -4049.5 -3928 -3954.5 -3936 -3987 -3549 -3419 -3342.5 -3158.5 -2961 -3200 -3214.5 -2814 -2400.5 -2480.5 -2887.5 -3129.5 -3560 -3640.5 -3634.5 -3625.5 -3589.5 -3589.5
-4775 -4682.5 -4632.75 -4745.75 -4770.25 -4763 -4737 -4749.5 -4720.75 -4764.25 -4692 -4622.75 -4626.5 -4627 -4607.5 -4642 -4632 -4533.75 -4516 -4434.5 -4362.75 -4297.75 -4213.75 -4165.25 -4129.5 -3945.25 -3864.25 -3666.75 -3503.5 -3238.75 -3164.75 -3075.5 -3034.25 -3078.5 -3071.75 -3092.75 -3072 -2968.75 -2919.25 -2552 -2426 -2501.25 -2484.75 -1849.75 -1492 -1076 -816 -359.5 -278.25 -221.25 -210 -191.5 -186 -177.75 -178.5 -168 -166.5 -158 -152.75 -146.5 -142.25 -131.75 -123.25 -108.25 -100.75 -86.75 -79.25 -86.75 -90.75 -90.5 -111.75 -136.75 -106.5 -132 -124 -104.5 -113.25 -115 -114.5 -132 -136 -122.75 -123.25 -153.75 -167.25 -273.5 -304.25 -469.25 -569.25 -705.75 -833 -1085.5 -1169.5 -1404.75 -1506.5 -1539.25 -1463.5 -1510.75 -1468.5 -1889 -1934.75 -2373.5 -2787.25 -2637.25 -2058.25 -1861.75 -1945.5 -2373 -2550 -3266.25 -3603.75 -4204 -4176.5 -3989.75 -3996 -4100 -4126.75 -4115.25 -4169.75 -4219 -4158.5 -4187.25 -4183 -4158.5 -4317.5 -4290 -4285.25 -4362.75 -4352.25 -4351.5 -4365.75 -4361 -4386 -4366.75 -4411.5 -4491.5 -4391.75 -4523.25 -4486.75 -4453.25 -4445.75 -4416.75 -4412 -4401.25 -4406 -4487.5 -4501 -4503.75 -4394.75 -4375 -4435.25 -4487.25 -4493.25 -4434.75 -4439.75 -4478 -4459.75 -4424.5 -4426.25 -4451.25 -4483.25 -4504 -4540.5 -4557.5 -4524.25 -4598 -4553 -4566.5 -4511.5 -4533 -4593.5 -4554 -4558 -4613.5 -4459.5 -4379.5 -4347.5 -4152.75 -4046.25 -3921 -3933 -4207.5 -4273.75 -3990.5 -3911.5 -3862 -3634.25 -2935 -3031.5 -3627.25 -3751.25 -3560.25 -3541 -3721.75 -3766 -3782.5 -3709 -3628 -3610.5 -3693.5 -3693.5
